ncols        601
nrows        31
xllcorner    -90.0083333333
yllcorner    24.825
cellsize     0.016666666667
-3453 -3451 -3448 -3446 -3443 -3441 -3439 -3438 -3437 -3435 -3434 -3433 -3431 -3430 -3429 -3428 -3427 -3425 -3425 -3424 -3423 -3422 -3421 -3421 -3420 -3420 -3420 -3420 -3420 -3421 -3421 -3422 -3422 -3421 -3421 -3420 -3420 -3419 -3418 -3417 -3416 -3415 -3415 -3415 -3415 -3416 -3416 -3416 -3417 -3417 -3418 -3418 -3418 -3417 -3417 -3416 -3414 -3413 -3411 -3409 -3407 -3406 -3406 -3407 -3407 -3407 -3406 -3405 -3403 -3402 -3403 -3403 -3402 -3400 -3398 -3396 -3396 -3396 -3396 -3398 -3399 -3400 -3402 -3403 -3404 -3405 -3406 -3407 -3407 -3408 -3408 -3409 -3410 -3412 -3413 -3416 -3418 -3417 -3417 -3417 -3417 -3419 -3416 -3412 -3410 -3409 -3405 -3404 -3404 -3403 -3403 -3402 -3398 -3392 -3387 -3383 -3381 -3379 -3379 -3380 -3381 -3383 -3383 -3383 -3383 -3383 -3384 -3383 -3381 -3379 -3379 -3379 -3380 -3378 -3379 -3381 -3384 -3387 -3388 -3389 -3390 -3391 -3391 -3390 -3388 -3387 -3386 -3384 -3384 -3385 -3387 -3389 -3391 -3390 -3388 -3386 -3385 -3384 -3383 -3383 -3383 -3383 -3383 -3383 -3382 -3382 -3382 -3383 -3381 -3380 -3380 -3381 -3381 -3377 -3369 -3361 -3352 -3342 -3340 -3340 -3340 -3339 -3328 -3310 -3307 -3305 -3304 -3304 -3303 -3301 -3299 -3298 -3296 -3294 -3292 -3290 -3288 -3285 -3281 -3278 -3274 -3269 -3263 -3262 -3260 -3257 -3255 -3252 -3249 -3247 -3245 -3243 -3241 -3240 -3240 -3240 -3242 -3244 -3246 -3247 -3247 -3246 -3244 -3243 -3242 -3243 -3246 -3249 -3251 -3254 -3255 -3255 -3253 -3251 -3248 -3245 -3241 -3238 -3235 -3234 -3236 -3238 -3241 -3244 -3247 -3248 -3249 -3250 -3251 -3253 -3256 -3258 -3259 -3261 -3263 -3266 -3268 -3270 -3271 -3272 -3273 -3274 -3276 -3278 -3282 -3284 -3286 -3287 -3287 -3287 -3287 -3288 -3288 -3289 -3290 -3291 -3292 -3293 -3295 -3297 -3299 -3300 -3302 -3304 -3306 -3308 -3311 -3313 -3315 -3317 -3318 -3318 -3319 -3321 -3323 -3325 -3327 -3330 -3332 -3333 -3335 -3337 -3340 -3342 -3343 -3345 -3346 -3347 -3347 -3349 -3352 -3356 -3353 -3321 -3326 -3360 -3319 -3362 -2617 -2014 -1907 -1845 -1989 -1887 -1669 -1472 -1340 -1219 -1080 -911 -767 -569 -486 -456 -420 -383 -354 -323 -296 -264 -229 -203 -189 -176 -163 -153 -152 -159 -162 -160 -151 -149 -148 -147 -145 -143 -142 -141 -139 -137 -135 -132 -129 -127 -127 -124 -122 -121 -119 -116 -114 -111 -108 -104 -101 -99 -96 -92 -87 -83 -82 -80 -76 -75 -75 -75 -75 -75 -74 -73 -72 -71 -71 -70 -69 -69 -68 -67 -66 -65 -64 -64 -64 -64 -63 -62 -62 -61 -61 -61 -60 -60 -59 -58 -58 -57 -56 -55 -55 -54 -53 -53 -52 -52 -52 -51 -50 -49 -49 -48 -46 -46 -45 -44 -43 -42 -41 -40 -40 -39 -39 -39 -38 -38 -37 -35 -35 -34 -34 -33 -33 -32 -32 -31 -29 -29 -29 -28 -28 -28 -27 -27 -27 -27 -26 -26 -26 -25 -24 -24 -24 -23 -22 -22 -22 -22 -20 -20 -19 -18 -18 -17 -17 -17 -17 -16 -16 -16 -15 -15 -14 -14 -14 -13 -13 -13 -13 -13 -12 -12 -12 -11 -11 -11 -10 -10 -10 -9 -9 -9 -9 -8 -8 -7 -7 -7 -6 -6 -6 -6 -5 -5 -5 -4 -4 -3 -3 -3 -2 -2 -2 0 -1 -1 0 -1 -1 0 6 3 0 -2 2 3 2 2 3 3 3 2 2 2 2 3 4 5 5 5 5 5 5 5 4 4 4 3 3 3 3 4 4 4 3 3 3 3 3 3 2 0 -2 -3 -3 -2 0 -1 -3 -4 -4 -5 -9 -17 -69 -101 -128 -154 -177 -200 -249 -358 -387
-3462 -3461 -3459 -3457 -3454 -3452 -3449 -3447 -3445 -3443 -3442 -3440 -3439 -3437 -3436 -3435 -3434 -3433 -3432 -3431 -3430 -3429 -3428 -3427 -3427 -3426 -3426 -3426 -3426 -3426 -3426 -3426 -3426 -3426 -3425 -3424 -3424 -3423 -3422 -3421 -3421 -3420 -3420 -3420 -3420 -3420 -3420 -3420 -3421 -3421 -3421 -3421 -3421 -3420 -3420 -3419 -3418 -3417 -3415 -3413 -3412 -3411 -3411 -3411 -3411 -3411 -3410 -3409 -3408 -3408 -3407 -3407 -3406 -3405 -3404 -3402 -3402 -3402 -3403 -3404 -3405 -3406 -3407 -3408 -3409 -3411 -3412 -3412 -3413 -3414 -3415 -3417 -3418 -3420 -3423 -3425 -3427 -3426 -3425 -3424 -3424 -3424 -3422 -3419 -3417 -3417 -3419 -3417 -3413 -3411 -3410 -3412 -3406 -3400 -3396 -3393 -3391 -3390 -3389 -3390 -3390 -3391 -3391 -3391 -3391 -3392 -3392 -3390 -3388 -3386 -3385 -3385 -3386 -3384 -3384 -3386 -3388 -3391 -3391 -3391 -3392 -3393 -3393 -3392 -3391 -3389 -3387 -3385 -3384 -3386 -3388 -3390 -3392 -3391 -3389 -3387 -3385 -3384 -3383 -3383 -3383 -3383 -3383 -3383 -3382 -3381 -3380 -3380 -3379 -3379 -3379 -3380 -3379 -3375 -3367 -3359 -3350 -3342 -3338 -3338 -3338 -3336 -3332 -3312 -3309 -3306 -3306 -3307 -3306 -3303 -3300 -3298 -3296 -3293 -3292 -3291 -3289 -3286 -3283 -3280 -3278 -3273 -3266 -3266 -3264 -3261 -3257 -3255 -3252 -3250 -3248 -3245 -3243 -3243 -3243 -3245 -3247 -3249 -3251 -3251 -3250 -3249 -3247 -3247 -3247 -3248 -3250 -3253 -3255 -3257 -3257 -3257 -3255 -3253 -3251 -3249 -3246 -3242 -3239 -3237 -3238 -3240 -3243 -3246 -3248 -3250 -3251 -3252 -3253 -3256 -3258 -3260 -3261 -3263 -3265 -3268 -3270 -3271 -3272 -3273 -3273 -3274 -3276 -3279 -3284 -3288 -3289 -3289 -3289 -3289 -3289 -3290 -3290 -3290 -3291 -3291 -3292 -3293 -3296 -3300 -3303 -3304 -3305 -3306 -3308 -3309 -3312 -3316 -3320 -3321 -3322 -3323 -3323 -3324 -3326 -3328 -3331 -3332 -3334 -3335 -3336 -3337 -3339 -3340 -3342 -3344 -3346 -3347 -3347 -3348 -3351 -3354 -3358 -3359 -3360 -3362 -3341 -3064 -2448 -2347 -2260 -2272 -2115 -1925 -1723 -1581 -1433 -1260 -1116 -953 -755 -609 -510 -460 -431 -398 -368 -337 -308 -277 -246 -213 -193 -180 -168 -156 -150 -156 -160 -159 -155 -149 -147 -145 -144 -142 -141 -140 -139 -136 -134 -132 -129 -127 -126 -124 -122 -122 -119 -116 -113 -111 -107 -104 -100 -98 -96 -92 -88 -83 -81 -78 -76 -74 -74 -75 -75 -75 -75 -73 -72 -72 -71 -70 -69 -68 -68 -66 -66 -65 -64 -64 -64 -64 -63 -62 -62 -62 -62 -61 -60 -60 -59 -59 -58 -58 -56 -55 -55 -54 -53 -53 -52 -52 -52 -51 -50 -49 -49 -47 -46 -46 -45 -44 -43 -42 -41 -41 -40 -40 -40 -39 -38 -38 -37 -37 -35 -35 -35 -34 -33 -33 -33 -31 -30 -29 -29 -28 -28 -28 -27 -27 -27 -27 -26 -26 -26 -26 -25 -24 -24 -23 -23 -22 -22 -21 -20 -20 -20 -19 -18 -18 -18 -17 -17 -17 -16 -16 -15 -15 -14 -14 -14 -14 -13 -13 -13 -12 -12 -12 -12 -12 -11 -11 -10 -10 -10 -9 -9 -9 -8 -8 -7 -7 -7 -7 -6 -6 -6 -6 -5 -5 -5 -4 -4 -3 -3 -2 -2 -2 -2 -1 13 5 -1 -1 -1 2 -1 -1 -1 -2 1 2 3 3 3 2 3 3 2 2 3 5 5 5 5 5 5 5 4 4 5 5 4 4 3 3 4 4 4 4 4 3 3 3 3 2 -2 -1 -3 -3 -3 3 -1 -4 -5 -6 -8 -7 -10 -32 -82 -110 -136 -161 -183 -205 -252 -353 -393
-3472 -3471 -3470 -3468 -3465 -3461 -3458 -3455 -3453 -3451 -3449 -3447 -3446 -3445 -3444 -3442 -3441 -3440 -3439 -3438 -3437 -3436 -3435 -3434 -3433 -3432 -3432 -3431 -3431 -3431 -3431 -3430 -3430 -3430 -3429 -3428 -3428 -3427 -3426 -3426 -3425 -3424 -3424 -3424 -3424 -3424 -3424 -3424 -3424 -3424 -3424 -3424 -3424 -3424 -3423 -3422 -3421 -3420 -3419 -3418 -3417 -3416 -3416 -3416 -3415 -3415 -3415 -3414 -3413 -3413 -3412 -3412 -3411 -3410 -3409 -3408 -3408 -3408 -3409 -3410 -3411 -3412 -3413 -3414 -3415 -3416 -3417 -3418 -3419 -3421 -3422 -3424 -3426 -3429 -3432 -3434 -3434 -3434 -3433 -3431 -3429 -3429 -3426 -3424 -3423 -3423 -3427 -3425 -3419 -3416 -3414 -3414 -3410 -3405 -3402 -3401 -3400 -3399 -3398 -3398 -3397 -3399 -3399 -3399 -3399 -3400 -3403 -3402 -3396 -3392 -3390 -3388 -3387 -3388 -3388 -3389 -3391 -3392 -3393 -3393 -3394 -3396 -3398 -3396 -3393 -3390 -3389 -3387 -3386 -3388 -3389 -3390 -3392 -3391 -3389 -3387 -3385 -3384 -3383 -3383 -3383 -3383 -3383 -3383 -3381 -3379 -3377 -3375 -3376 -3377 -3377 -3377 -3376 -3372 -3365 -3357 -3350 -3342 -3337 -3337 -3336 -3333 -3326 -3320 -3313 -3309 -3309 -3310 -3309 -3304 -3301 -3300 -3296 -3292 -3292 -3292 -3291 -3288 -3284 -3283 -3281 -3276 -3272 -3272 -3268 -3264 -3261 -3258 -3255 -3253 -3251 -3247 -3245 -3245 -3246 -3249 -3252 -3255 -3257 -3256 -3254 -3252 -3251 -3250 -3251 -3252 -3255 -3258 -3259 -3260 -3261 -3260 -3258 -3255 -3254 -3252 -3251 -3247 -3240 -3238 -3239 -3241 -3245 -3248 -3251 -3253 -3253 -3254 -3255 -3258 -3262 -3263 -3264 -3264 -3267 -3271 -3272 -3273 -3273 -3273 -3274 -3274 -3276 -3278 -3285 -3291 -3292 -3292 -3291 -3291 -3292 -3292 -3292 -3292 -3292 -3292 -3292 -3293 -3296 -3303 -3307 -3308 -3308 -3310 -3310 -3311 -3313 -3319 -3325 -3326 -3327 -3327 -3327 -3327 -3328 -3331 -3334 -3335 -3336 -3336 -3337 -3337 -3338 -3339 -3340 -3344 -3346 -3347 -3347 -3347 -3348 -3351 -3362 -3361 -3357 -3336 -2996 -2689 -3118 -3282 -3098 -2367 -2194 -1977 -1755 -1572 -1432 -1313 -1216 -1060 -884 -700 -578 -475 -439 -413 -384 -353 -322 -293 -263 -227 -201 -186 -174 -160 -151 -151 -156 -158 -154 -150 -148 -146 -144 -142 -141 -140 -138 -136 -134 -131 -129 -126 -126 -123 -121 -120 -118 -116 -113 -110 -107 -104 -101 -100 -98 -93 -87 -85 -82 -78 -75 -74 -75 -75 -75 -75 -74 -73 -73 -73 -71 -71 -69 -69 -68 -67 -66 -65 -65 -64 -64 -64 -64 -63 -62 -62 -62 -62 -61 -60 -60 -59 -58 -58 -56 -56 -55 -54 -53 -54 -53 -52 -51 -51 -50 -49 -49 -47 -46 -46 -45 -44 -44 -42 -42 -41 -40 -40 -40 -39 -38 -38 -38 -37 -36 -35 -35 -34 -33 -33 -33 -32 -31 -29 -29 -29 -29 -28 -27 -28 -27 -27 -27 -27 -26 -26 -25 -25 -24 -23 -23 -22 -22 -21 -20 -19 -19 -18 -18 -17 -17 -17 -17 -17 -16 -15 -15 -15 -14 -14 -14 -14 -13 -13 -13 -13 -12 -12 -12 -12 -11 -11 -11 -10 -10 -10 -9 -9 -9 -8 -7 -7 -7 -7 -7 -6 -6 -6 -5 -5 -5 -4 -4 -3 -3 -2 -2 -1 -1 5 11 4 4 -2 0 -1 -1 -1 -1 -1 -1 1 3 3 3 3 3 3 3 3 4 4 4 4 4 4 4 4 4 4 5 4 4 4 3 4 4 4 4 4 4 3 4 4 3 1 -2 -2 -3 -3 4 1 -4 -5 -5 -5 -10 -9 -16 -52 -96 -120 -145 -168 -188 -210 -252 -350 -406
-3482 -3483 -3482 -3480 -3476 -3471 -3467 -3463 -3461 -3458 -3456 -3455 -3453 -3452 -3451 -3450 -3449 -3448 -3447 -3446 -3444 -3443 -3442 -3441 -3440 -3439 -3438 -3437 -3436 -3436 -3436 -3435 -3434 -3434 -3433 -3433 -3432 -3431 -3431 -3430 -3429 -3429 -3428 -3428 -3428 -3428 -3428 -3428 -3428 -3428 -3428 -3428 -3427 -3427 -3426 -3426 -3425 -3424 -3423 -3422 -3421 -3421 -3420 -3420 -3420 -3419 -3419 -3419 -3418 -3418 -3417 -3417 -3416 -3416 -3415 -3414 -3414 -3414 -3415 -3415 -3416 -3417 -3418 -3419 -3420 -3422 -3423 -3424 -3425 -3427 -3429 -3431 -3433 -3437 -3440 -3445 -3450 -3446 -3441 -3437 -3433 -3431 -3429 -3427 -3427 -3427 -3428 -3427 -3423 -3419 -3415 -3407 -3407 -3408 -3408 -3408 -3409 -3409 -3407 -3406 -3405 -3404 -3404 -3405 -3406 -3407 -3410 -3409 -3402 -3397 -3394 -3394 -3394 -3393 -3391 -3392 -3393 -3394 -3394 -3394 -3395 -3398 -3400 -3397 -3394 -3391 -3390 -3390 -3391 -3390 -3390 -3390 -3391 -3390 -3388 -3386 -3385 -3384 -3383 -3383 -3383 -3383 -3383 -3382 -3381 -3379 -3376 -3374 -3375 -3375 -3375 -3374 -3373 -3369 -3363 -3356 -3349 -3342 -3337 -3336 -3335 -3334 -3330 -3326 -3322 -3316 -3314 -3313 -3311 -3308 -3305 -3303 -3299 -3296 -3295 -3294 -3294 -3291 -3289 -3287 -3284 -3281 -3278 -3276 -3272 -3268 -3265 -3263 -3260 -3258 -3256 -3251 -3250 -3250 -3250 -3254 -3257 -3261 -3264 -3262 -3259 -3257 -3256 -3254 -3255 -3256 -3259 -3263 -3264 -3264 -3265 -3264 -3262 -3259 -3258 -3257 -3256 -3251 -3243 -3240 -3241 -3244 -3247 -3251 -3255 -3256 -3257 -3258 -3259 -3261 -3265 -3266 -3267 -3268 -3271 -3274 -3275 -3276 -3276 -3276 -3276 -3277 -3279 -3281 -3289 -3296 -3297 -3296 -3295 -3295 -3296 -3296 -3296 -3296 -3296 -3296 -3296 -3297 -3300 -3306 -3310 -3311 -3311 -3314 -3315 -3316 -3318 -3323 -3328 -3329 -3329 -3330 -3330 -3330 -3331 -3333 -3336 -3337 -3338 -3338 -3338 -3338 -3339 -3339 -3341 -3345 -3348 -3349 -3349 -3350 -3351 -3353 -3358 -3360 -3353 -3248 -3309 -3322 -3338 -3245 -2987 -2227 -2075 -1980 -1740 -1617 -1468 -1341 -1243 -1114 -968 -779 -644 -491 -453 -419 -392 -363 -331 -301 -271 -237 -205 -190 -177 -164 -152 -149 -157 -158 -154 -151 -149 -147 -146 -143 -141 -139 -137 -135 -133 -130 -129 -127 -125 -123 -121 -120 -118 -116 -113 -109 -107 -104 -101 -100 -98 -92 -86 -83 -81 -78 -75 -74 -75 -75 -75 -75 -75 -73 -73 -73 -72 -71 -69 -69 -68 -67 -66 -66 -65 -64 -64 -64 -64 -63 -62 -62 -62 -62 -61 -60 -60 -59 -58 -57 -57 -56 -56 -55 -54 -54 -52 -52 -52 -51 -50 -48 -48 -47 -46 -46 -45 -45 -44 -42 -42 -42 -40 -40 -40 -40 -38 -38 -37 -37 -36 -35 -35 -34 -33 -33 -33 -33 -31 -30 -29 -29 -29 -29 -28 -29 -27 -27 -27 -27 -26 -26 -25 -24 -24 -23 -23 -22 -22 -21 -20 -19 -19 -19 -18 -18 -18 -18 -17 -17 -16 -15 -15 -15 -14 -14 -14 -14 -13 -13 -13 -13 -13 -13 -12 -12 -11 -11 -11 -10 -10 -10 -9 -9 -8 -8 -8 -7 -7 -6 -6 -6 -6 -6 -5 -5 -5 -4 -3 -3 -3 -2 -2 -1 0 10 10 4 3 -1 -2 1 -2 -1 -1 -2 -2 -3 0 1 3 3 3 3 3 4 5 4 4 4 4 4 4 4 4 4 4 4 4 4 3 4 4 4 4 4 4 4 4 3 0 -2 -2 -1 -1 5 8 -1 -4 -5 -4 -8 -8 -12 -35 -79 -103 -127 -152 -175 -194 -217 -252 -352 -410
-3491 -3494 -3495 -3493 -3486 -3480 -3475 -3471 -3468 -3465 -3463 -3461 -3460 -3459 -3458 -3457 -3456 -3455 -3454 -3453 -3452 -3450 -3449 -3447 -3446 -3445 -3444 -3443 -3442 -3441 -3440 -3440 -3439 -3438 -3438 -3437 -3436 -3435 -3435 -3434 -3433 -3433 -3433 -3432 -3432 -3432 -3432 -3432 -3432 -3431 -3431 -3431 -3431 -3430 -3430 -3429 -3429 -3428 -3427 -3426 -3426 -3425 -3425 -3424 -3424 -3424 -3424 -3423 -3423 -3422 -3422 -3422 -3421 -3421 -3420 -3420 -3420 -3420 -3420 -3421 -3422 -3423 -3423 -3425 -3426 -3427 -3428 -3429 -3431 -3433 -3435 -3437 -3440 -3444 -3448 -3454 -3461 -3455 -3447 -3441 -3437 -3435 -3432 -3430 -3429 -3429 -3429 -3429 -3426 -3422 -3418 -3415 -3413 -3413 -3413 -3414 -3417 -3417 -3413 -3412 -3412 -3413 -3412 -3412 -3411 -3412 -3414 -3413 -3406 -3398 -3398 -3398 -3401 -3397 -3393 -3393 -3396 -3398 -3395 -3394 -3395 -3397 -3400 -3398 -3394 -3391 -3391 -3391 -3392 -3391 -3390 -3389 -3388 -3388 -3387 -3386 -3385 -3384 -3383 -3383 -3383 -3383 -3383 -3382 -3380 -3378 -3376 -3374 -3374 -3374 -3373 -3371 -3369 -3365 -3361 -3356 -3349 -3343 -3338 -3336 -3335 -3334 -3333 -3329 -3325 -3321 -3319 -3317 -3315 -3312 -3309 -3306 -3303 -3301 -3299 -3297 -3296 -3295 -3293 -3291 -3289 -3286 -3284 -3282 -3279 -3276 -3273 -3270 -3267 -3265 -3262 -3260 -3258 -3258 -3259 -3262 -3265 -3268 -3269 -3268 -3265 -3264 -3262 -3260 -3261 -3262 -3264 -3267 -3268 -3269 -3269 -3269 -3267 -3265 -3264 -3264 -3262 -3258 -3253 -3249 -3248 -3250 -3252 -3256 -3259 -3261 -3262 -3263 -3265 -3267 -3269 -3271 -3272 -3273 -3276 -3278 -3279 -3280 -3280 -3281 -3281 -3283 -3285 -3289 -3296 -3301 -3302 -3301 -3300 -3300 -3300 -3301 -3302 -3302 -3302 -3302 -3303 -3304 -3306 -3310 -3313 -3315 -3317 -3319 -3321 -3322 -3324 -3327 -3329 -3331 -3331 -3332 -3332 -3332 -3333 -3335 -3336 -3337 -3338 -3339 -3339 -3340 -3341 -3342 -3344 -3348 -3350 -3351 -3352 -3353 -3355 -3358 -3362 -3362 -3362 -3363 -3367 -3362 -3167 -2967 -2376 -1967 -1879 -1768 -1661 -1551 -1475 -1338 -1213 -1127 -988 -880 -729 -561 -464 -437 -402 -373 -340 -310 -282 -247 -212 -194 -181 -168 -152 -146 -152 -156 -154 -150 -147 -145 -143 -142 -141 -139 -137 -134 -132 -129 -128 -127 -125 -122 -121 -120 -118 -116 -113 -110 -107 -105 -102 -100 -97 -91 -87 -84 -82 -78 -75 -74 -75 -75 -75 -75 -75 -74 -73 -72 -71 -70 -69 -68 -68 -67 -66 -66 -65 -64 -64 -64 -64 -63 -62 -62 -62 -62 -61 -60 -60 -59 -58 -58 -57 -57 -57 -54 -55 -54 -52 -52 -51 -51 -49 -49 -48 -47 -46 -46 -45 -44 -44 -43 -42 -42 -40 -40 -40 -39 -38 -38 -37 -37 -37 -35 -35 -34 -35 -33 -33 -33 -31 -31 -30 -29 -29 -29 -28 -29 -28 -27 -27 -27 -26 -26 -25 -25 -24 -23 -23 -22 -22 -20 -20 -19 -19 -19 -18 -18 -17 -17 -17 -16 -16 -15 -15 -15 -14 -14 -14 -14 -14 -14 -13 -14 -14 -13 -13 -12 -12 -11 -11 -10 -11 -10 -10 -9 -9 -8 -8 -7 -6 -6 -6 -6 -6 -5 -5 -5 -5 -4 -4 -3 -3 -2 -1 -1 0 11 8 3 3 3 -1 -1 0 -1 -1 -1 -1 -1 -1 0 3 3 4 4 3 5 5 4 4 4 4 4 4 4 4 4 4 4 4 4 4 5 4 4 4 4 4 4 0 -1 -1 -2 -2 -3 -1 6 -1 -3 -4 -4 -8 -4 -11 -15 -54 -87 -111 -136 -156 -180 -200 -223 -260 -344 -416
-3499 -3500 -3501 -3501 -3495 -3487 -3481 -3477 -3474 -3472 -3470 -3468 -3467 -3466 -3465 -3464 -3463 -3463 -3462 -3460 -3459 -3457 -3456 -3454 -3452 -3451 -3449 -3448 -3447 -3446 -3445 -3444 -3443 -3443 -3442 -3441 -3440 -3440 -3439 -3438 -3438 -3437 -3437 -3436 -3436 -3436 -3436 -3435 -3435 -3435 -3435 -3435 -3434 -3434 -3433 -3433 -3432 -3432 -3431 -3431 -3430 -3430 -3429 -3429 -3429 -3428 -3428 -3428 -3428 -3427 -3427 -3427 -3426 -3426 -3426 -3425 -3425 -3426 -3426 -3426 -3427 -3428 -3429 -3430 -3431 -3432 -3433 -3435 -3436 -3438 -3440 -3443 -3446 -3449 -3454 -3459 -3464 -3458 -3450 -3444 -3437 -3430 -3432 -3432 -3432 -3431 -3430 -3429 -3428 -3425 -3423 -3422 -3420 -3418 -3417 -3418 -3419 -3419 -3417 -3417 -3417 -3420 -3420 -3417 -3415 -3414 -3414 -3413 -3409 -3403 -3405 -3408 -3408 -3403 -3399 -3398 -3402 -3401 -3395 -3393 -3393 -3393 -3397 -3396 -3392 -3390 -3390 -3390 -3391 -3390 -3389 -3388 -3385 -3385 -3386 -3386 -3385 -3384 -3383 -3383 -3383 -3383 -3383 -3382 -3380 -3378 -3376 -3374 -3374 -3373 -3372 -3370 -3367 -3364 -3361 -3356 -3350 -3343 -3338 -3336 -3335 -3334 -3332 -3329 -3327 -3324 -3322 -3321 -3319 -3317 -3313 -3310 -3307 -3304 -3302 -3300 -3300 -3299 -3298 -3296 -3294 -3292 -3290 -3289 -3286 -3283 -3280 -3277 -3274 -3271 -3269 -3268 -3267 -3267 -3268 -3271 -3274 -3276 -3277 -3276 -3273 -3271 -3269 -3268 -3267 -3268 -3270 -3272 -3273 -3274 -3274 -3273 -3273 -3272 -3271 -3271 -3270 -3267 -3263 -3260 -3257 -3257 -3259 -3262 -3264 -3266 -3268 -3270 -3271 -3272 -3274 -3275 -3276 -3278 -3281 -3283 -3284 -3284 -3285 -3285 -3286 -3288 -3291 -3295 -3301 -3306 -3306 -3305 -3304 -3304 -3305 -3306 -3307 -3307 -3308 -3308 -3309 -3310 -3311 -3313 -3316 -3320 -3323 -3325 -3327 -3328 -3329 -3331 -3332 -3333 -3334 -3334 -3334 -3335 -3335 -3336 -3337 -3337 -3338 -3339 -3341 -3342 -3343 -3345 -3347 -3351 -3354 -3355 -3355 -3357 -3358 -3362 -3367 -3368 -3368 -3368 -3350 -2724 -3044 -2999 -2386 -2086 -1875 -1740 -1648 -1507 -1444 -1333 -1239 -1154 -1042 -916 -776 -628 -484 -450 -411 -386 -342 -322 -296 -267 -231 -200 -184 -169 -155 -147 -152 -155 -154 -150 -147 -145 -144 -142 -140 -138 -135 -133 -132 -130 -128 -126 -124 -122 -120 -121 -118 -116 -112 -109 -106 -104 -102 -99 -97 -92 -87 -84 -82 -78 -75 -74 -74 -75 -76 -75 -74 -74 -73 -72 -71 -70 -69 -69 -68 -67 -66 -66 -66 -65 -64 -64 -64 -63 -62 -62 -62 -61 -60 -60 -59 -59 -58 -58 -57 -57 -56 -55 -54 -54 -51 -51 -51 -51 -50 -49 -48 -47 -46 -46 -45 -44 -44 -43 -42 -42 -41 -40 -40 -40 -39 -39 -38 -37 -37 -36 -35 -35 -35 -33 -33 -33 -32 -31 -30 -29 -30 -29 -29 -29 -28 -28 -27 -27 -26 -26 -25 -24 -24 -23 -23 -22 -21 -20 -20 -20 -20 -19 -18 -18 -17 -17 -16 -16 -15 -15 -15 -15 -15 -15 -15 -15 -14 -14 -13 -14 -14 -13 -13 -12 -12 -12 -11 -11 -11 -10 -10 -9 -8 -7 -7 -7 -6 -6 -6 -6 -6 -5 -5 -5 -5 -5 -4 -3 -3 -2 -1 -1 0 9 6 3 3 3 -1 1 -1 2 -1 -1 -1 -1 -1 -1 3 3 4 4 5 5 5 5 5 4 4 3 4 4 4 4 4 4 4 4 5 5 4 5 5 3 4 0 0 -1 -1 -2 -3 -3 -2 1 -2 -4 -4 -7 -7 -5 -6 -38 -73 -97 -121 -144 -168 -188 -208 -231 -261 -343 -424
-3501 -3501 -3501 -3500 -3497 -3491 -3486 -3483 -3480 -3477 -3476 -3474 -3473 -3473 -3472 -3471 -3471 -3470 -3469 -3468 -3466 -3464 -3462 -3460 -3458 -3457 -3455 -3453 -3452 -3451 -3450 -3449 -3448 -3447 -3446 -3445 -3444 -3444 -3443 -3442 -3442 -3441 -3441 -3440 -3440 -3440 -3439 -3439 -3439 -3439 -3438 -3438 -3438 -3438 -3437 -3437 -3436 -3436 -3435 -3435 -3434 -3434 -3434 -3433 -3433 -3433 -3433 -3432 -3432 -3432 -3432 -3431 -3431 -3431 -3431 -3431 -3431 -3431 -3431 -3432 -3432 -3433 -3434 -3435 -3436 -3437 -3438 -3440 -3441 -3443 -3445 -3448 -3451 -3454 -3458 -3462 -3465 -3460 -3452 -3446 -3439 -3434 -3434 -3434 -3434 -3434 -3435 -3433 -3429 -3428 -3427 -3428 -3426 -3422 -3421 -3420 -3420 -3419 -3419 -3419 -3420 -3424 -3423 -3421 -3418 -3416 -3418 -3419 -3414 -3411 -3411 -3414 -3413 -3407 -3404 -3404 -3407 -3408 -3401 -3397 -3394 -3392 -3395 -3391 -3388 -3388 -3388 -3388 -3386 -3389 -3390 -3389 -3386 -3386 -3387 -3387 -3385 -3384 -3383 -3383 -3383 -3383 -3383 -3382 -3380 -3378 -3376 -3374 -3373 -3372 -3371 -3369 -3367 -3364 -3361 -3357 -3352 -3345 -3338 -3337 -3336 -3334 -3331 -3330 -3328 -3327 -3326 -3325 -3324 -3322 -3318 -3314 -3309 -3308 -3305 -3302 -3302 -3303 -3304 -3301 -3298 -3297 -3296 -3297 -3294 -3289 -3286 -3284 -3280 -3277 -3276 -3276 -3275 -3276 -3276 -3279 -3283 -3285 -3285 -3284 -3281 -3278 -3277 -3275 -3272 -3272 -3275 -3277 -3278 -3278 -3279 -3278 -3278 -3278 -3278 -3279 -3279 -3276 -3274 -3270 -3264 -3261 -3264 -3268 -3269 -3271 -3274 -3276 -3277 -3278 -3279 -3279 -3280 -3282 -3286 -3288 -3289 -3289 -3289 -3289 -3290 -3293 -3296 -3299 -3303 -3308 -3309 -3308 -3308 -3308 -3309 -3312 -3314 -3313 -3313 -3314 -3315 -3315 -3316 -3316 -3320 -3324 -3329 -3332 -3333 -3333 -3334 -3335 -3335 -3336 -3336 -3336 -3336 -3336 -3337 -3337 -3337 -3338 -3338 -3339 -3342 -3344 -3345 -3346 -3349 -3355 -3358 -3358 -3358 -3360 -3359 -3366 -3374 -3375 -3371 -3356 -3227 -3094 -2625 -2347 -2344 -2237 -2068 -1893 -1648 -1573 -1462 -1375 -1286 -1121 -990 -855 -729 -595 -470 -448 -421 -397 -361 -333 -307 -277 -245 -211 -189 -171 -156 -149 -153 -154 -153 -150 -147 -144 -143 -142 -141 -138 -135 -133 -132 -129 -128 -126 -124 -121 -120 -120 -118 -115 -112 -109 -106 -104 -101 -99 -96 -91 -87 -85 -81 -77 -74 -72 -74 -75 -75 -75 -74 -73 -73 -72 -71 -71 -69 -69 -68 -68 -67 -66 -66 -64 -64 -64 -64 -63 -62 -62 -62 -62 -60 -60 -59 -59 -59 -58 -57 -56 -56 -54 -54 -53 -52 -52 -51 -51 -50 -49 -48 -47 -46 -45 -45 -44 -43 -43 -42 -41 -40 -40 -39 -40 -39 -38 -38 -37 -37 -36 -35 -35 -35 -34 -34 -33 -33 -32 -31 -30 -30 -30 -29 -29 -29 -28 -27 -27 -26 -26 -26 -25 -25 -24 -23 -22 -21 -20 -20 -20 -19 -18 -18 -17 -17 -17 -17 -16 -16 -16 -16 -15 -15 -15 -15 -14 -14 -13 -14 -14 -14 -13 -13 -13 -12 -12 -12 -11 -10 -9 -9 -8 -8 -7 -7 -7 -6 -6 -6 -7 -6 -5 -5 -5 -5 -5 -4 -3 -3 -2 -1 -1 3 7 6 5 3 3 3 1 1 2 2 -1 0 -1 -1 -1 3 2 3 4 5 5 5 5 5 5 4 3 4 5 5 5 4 4 4 3 2 2 3 3 3 2 2 -1 -1 -1 -2 -3 -3 -3 -1 -1 -4 -4 -4 -5 -2 -6 -17 -56 -83 -105 -130 -153 -175 -196 -215 -238 -266 -339 -425
-3502 -3501 -3501 -3500 -3497 -3494 -3490 -3487 -3485 -3483 -3481 -3480 -3479 -3479 -3479 -3479 -3478 -3478 -3477 -3476 -3474 -3472 -3469 -3467 -3464 -3462 -3460 -3459 -3457 -3456 -3454 -3453 -3452 -3451 -3450 -3449 -3448 -3448 -3447 -3446 -3446 -3445 -3445 -3444 -3444 -3443 -3443 -3443 -3443 -3442 -3442 -3442 -3442 -3441 -3441 -3440 -3440 -3440 -3439 -3439 -3438 -3438 -3438 -3438 -3438 -3437 -3437 -3437 -3437 -3437 -3437 -3436 -3436 -3436 -3436 -3436 -3436 -3436 -3436 -3437 -3437 -3438 -3438 -3439 -3440 -3442 -3443 -3444 -3446 -3448 -3450 -3452 -3455 -3458 -3461 -3464 -3465 -3461 -3454 -3448 -3442 -3438 -3437 -3437 -3437 -3437 -3438 -3436 -3432 -3431 -3430 -3429 -3427 -3425 -3423 -3422 -3421 -3420 -3420 -3420 -3420 -3421 -3422 -3424 -3422 -3420 -3421 -3422 -3419 -3415 -3413 -3412 -3411 -3408 -3407 -3407 -3407 -3407 -3403 -3400 -3397 -3394 -3393 -3386 -3384 -3386 -3387 -3388 -3389 -3391 -3391 -3392 -3392 -3392 -3390 -3388 -3386 -3384 -3383 -3383 -3383 -3383 -3383 -3382 -3380 -3378 -3376 -3374 -3373 -3372 -3371 -3370 -3368 -3366 -3364 -3360 -3355 -3348 -3342 -3340 -3338 -3334 -3331 -3333 -3332 -3330 -3329 -3328 -3328 -3326 -3321 -3317 -3313 -3311 -3310 -3305 -3306 -3307 -3308 -3305 -3303 -3301 -3300 -3302 -3300 -3294 -3292 -3290 -3285 -3280 -3282 -3282 -3282 -3282 -3283 -3285 -3289 -3291 -3290 -3289 -3285 -3283 -3282 -3281 -3277 -3276 -3279 -3282 -3283 -3283 -3283 -3283 -3283 -3283 -3283 -3284 -3284 -3282 -3280 -3276 -3269 -3265 -3269 -3273 -3274 -3275 -3279 -3282 -3282 -3283 -3283 -3283 -3284 -3285 -3290 -3292 -3292 -3292 -3292 -3292 -3293 -3296 -3299 -3301 -3303 -3308 -3310 -3310 -3310 -3310 -3311 -3315 -3318 -3317 -3317 -3318 -3319 -3320 -3320 -3319 -3323 -3328 -3332 -3335 -3336 -3337 -3337 -3337 -3337 -3337 -3338 -3338 -3338 -3338 -3338 -3338 -3339 -3339 -3339 -3341 -3345 -3347 -3347 -3347 -3349 -3358 -3362 -3362 -3361 -3364 -3362 -3370 -3382 -3385 -3384 -3361 -3281 -2920 -2589 -1967 -1951 -1896 -1817 -1728 -1621 -1539 -1449 -1392 -1214 -1080 -981 -897 -776 -654 -522 -460 -444 -414 -389 -357 -327 -291 -256 -223 -195 -174 -157 -147 -144 -150 -152 -151 -149 -145 -143 -142 -140 -137 -136 -133 -131 -129 -128 -126 -124 -121 -119 -120 -117 -114 -112 -109 -107 -104 -101 -99 -94 -88 -87 -86 -81 -77 -74 -73 -74 -74 -74 -75 -74 -73 -73 -72 -71 -70 -69 -69 -68 -67 -66 -66 -66 -65 -64 -64 -64 -63 -62 -62 -62 -61 -60 -60 -60 -59 -59 -58 -57 -56 -56 -54 -54 -54 -52 -52 -52 -51 -50 -49 -48 -47 -46 -45 -44 -44 -43 -43 -42 -42 -40 -40 -40 -40 -39 -38 -38 -37 -37 -37 -37 -35 -35 -35 -35 -34 -33 -32 -31 -31 -31 -31 -30 -29 -29 -28 -27 -27 -27 -26 -25 -25 -25 -24 -23 -22 -22 -21 -21 -20 -20 -19 -18 -18 -18 -17 -17 -17 -17 -17 -16 -16 -16 -15 -15 -15 -14 -14 -14 -14 -14 -14 -13 -13 -13 -12 -11 -11 -10 -9 -9 -9 -8 -8 -7 -7 -6 -6 -6 -6 -6 -6 -5 -5 -5 -5 -4 -4 -3 -2 -2 -1 0 7 8 5 4 3 2 2 2 4 0 -1 -1 -1 -1 2 2 2 3 6 6 5 5 6 5 5 5 5 5 5 5 3 4 0 3 -2 2 0 0 0 2 -1 0 -1 -1 -2 -2 -3 -3 -2 -1 -3 -4 -3 -5 -2 -3 -8 -32 -69 -94 -117 -140 -162 -183 -202 -223 -245 -274 -333 -431
-3502 -3501 -3501 -3500 -3498 -3496 -3493 -3491 -3489 -3487 -3486 -3485 -3485 -3485 -3485 -3486 -3486 -3486 -3485 -3485 -3482 -3479 -3476 -3473 -3470 -3468 -3466 -3464 -3462 -3461 -3459 -3458 -3457 -3455 -3454 -3453 -3452 -3452 -3451 -3450 -3450 -3449 -3448 -3448 -3448 -3447 -3447 -3447 -3446 -3446 -3446 -3445 -3445 -3445 -3445 -3444 -3444 -3443 -3443 -3443 -3443 -3442 -3442 -3442 -3442 -3442 -3442 -3442 -3442 -3442 -3441 -3441 -3441 -3441 -3441 -3441 -3441 -3441 -3441 -3441 -3442 -3442 -3443 -3444 -3445 -3446 -3447 -3449 -3450 -3452 -3454 -3456 -3459 -3461 -3464 -3466 -3466 -3462 -3456 -3450 -3443 -3438 -3438 -3439 -3440 -3440 -3437 -3437 -3436 -3434 -3432 -3430 -3428 -3426 -3425 -3424 -3422 -3421 -3421 -3421 -3421 -3420 -3423 -3427 -3427 -3425 -3426 -3427 -3421 -3417 -3414 -3413 -3411 -3408 -3407 -3408 -3411 -3410 -3405 -3401 -3398 -3396 -3393 -3390 -3386 -3384 -3386 -3389 -3392 -3392 -3393 -3395 -3398 -3397 -3393 -3389 -3387 -3384 -3383 -3383 -3383 -3383 -3383 -3382 -3380 -3378 -3376 -3374 -3373 -3372 -3372 -3372 -3371 -3370 -3367 -3363 -3359 -3356 -3352 -3347 -3342 -3337 -3334 -3339 -3337 -3333 -3331 -3329 -3328 -3326 -3323 -3320 -3317 -3315 -3314 -3312 -3312 -3312 -3311 -3309 -3307 -3305 -3304 -3304 -3302 -3298 -3295 -3293 -3289 -3285 -3285 -3285 -3286 -3286 -3286 -3288 -3290 -3291 -3291 -3290 -3288 -3286 -3285 -3284 -3282 -3281 -3283 -3284 -3285 -3285 -3285 -3285 -3285 -3285 -3285 -3286 -3286 -3284 -3282 -3278 -3274 -3272 -3274 -3276 -3277 -3279 -3281 -3284 -3285 -3285 -3286 -3286 -3287 -3289 -3292 -3294 -3295 -3295 -3294 -3294 -3295 -3297 -3300 -3302 -3305 -3308 -3310 -3311 -3311 -3312 -3313 -3315 -3317 -3318 -3319 -3320 -3321 -3321 -3322 -3323 -3325 -3329 -3332 -3335 -3337 -3337 -3337 -3338 -3338 -3338 -3338 -3338 -3338 -3339 -3339 -3340 -3340 -3341 -3342 -3344 -3347 -3349 -3351 -3352 -3355 -3360 -3364 -3364 -3365 -3367 -3369 -3374 -3381 -3388 -3389 -3367 -3282 -3019 -2397 -1925 -1854 -1790 -1776 -1718 -1623 -1531 -1460 -1354 -1218 -1158 -1105 -999 -869 -711 -582 -507 -455 -418 -397 -366 -335 -308 -280 -249 -211 -185 -167 -150 -142 -149 -153 -152 -151 -146 -144 -142 -139 -137 -136 -134 -130 -129 -127 -127 -125 -122 -120 -120 -118 -114 -112 -109 -107 -106 -101 -98 -91 -86 -87 -84 -79 -76 -74 -72 -74 -74 -74 -74 -74 -73 -72 -71 -69 -70 -69 -67 -67 -67 -66 -65 -65 -64 -64 -64 -63 -63 -62 -61 -61 -61 -61 -60 -59 -59 -58 -58 -57 -56 -56 -55 -54 -53 -52 -52 -52 -51 -50 -48 -48 -47 -46 -46 -45 -44 -43 -43 -42 -42 -40 -40 -40 -40 -39 -38 -38 -38 -37 -37 -37 -36 -35 -35 -35 -34 -33 -33 -32 -31 -31 -31 -31 -30 -29 -28 -27 -27 -26 -26 -26 -25 -25 -24 -23 -23 -22 -22 -21 -20 -20 -20 -19 -18 -18 -18 -18 -18 -17 -17 -17 -16 -16 -16 -15 -15 -14 -14 -14 -15 -14 -14 -13 -13 -12 -11 -11 -10 -10 -9 -9 -9 -8 -8 -7 -7 -7 -6 -6 -6 -6 -6 -6 -5 -5 -5 -4 -4 -3 -2 -2 -1 0 0 8 5 4 4 4 3 3 4 4 3 4 5 5 0 4 5 8 9 9 8 8 8 8 5 3 4 5 5 5 4 1 0 2 0 0 0 0 0 0 -1 -1 -1 -1 -2 -2 -2 1 1 -2 -4 -4 -5 -2 -3 -5 -19 -50 -81 -103 -127 -148 -171 -190 -208 -230 -251 -280 -331 -430
-3502 -3501 -3500 -3500 -3500 -3498 -3496 -3494 -3493 -3491 -3490 -3490 -3490 -3491 -3492 -3493 -3493 -3494 -3494 -3495 -3491 -3485 -3481 -3478 -3475 -3473 -3471 -3469 -3467 -3465 -3464 -3462 -3461 -3460 -3458 -3457 -3456 -3456 -3455 -3454 -3453 -3453 -3452 -3452 -3451 -3451 -3451 -3450 -3450 -3450 -3449 -3449 -3449 -3449 -3448 -3448 -3448 -3447 -3447 -3447 -3447 -3447 -3447 -3447 -3447 -3447 -3446 -3446 -3446 -3446 -3446 -3446 -3446 -3446 -3446 -3446 -3446 -3446 -3446 -3446 -3446 -3447 -3448 -3448 -3449 -3450 -3452 -3453 -3454 -3456 -3458 -3460 -3462 -3464 -3467 -3469 -3470 -3466 -3459 -3452 -3444 -3439 -3440 -3442 -3444 -3446 -3445 -3443 -3440 -3438 -3435 -3432 -3429 -3428 -3427 -3426 -3426 -3425 -3423 -3422 -3422 -3425 -3428 -3429 -3429 -3428 -3428 -3428 -3422 -3417 -3413 -3410 -3408 -3407 -3407 -3407 -3408 -3407 -3404 -3401 -3399 -3397 -3394 -3391 -3389 -3386 -3384 -3390 -3392 -3393 -3394 -3397 -3400 -3399 -3394 -3390 -3387 -3384 -3383 -3383 -3383 -3383 -3383 -3382 -3380 -3378 -3376 -3374 -3373 -3372 -3372 -3372 -3373 -3373 -3369 -3366 -3364 -3363 -3360 -3353 -3346 -3340 -3339 -3343 -3339 -3335 -3332 -3330 -3328 -3327 -3325 -3323 -3321 -3320 -3318 -3317 -3317 -3316 -3315 -3313 -3311 -3309 -3307 -3306 -3304 -3302 -3298 -3295 -3291 -3289 -3288 -3288 -3288 -3288 -3288 -3289 -3290 -3291 -3291 -3290 -3289 -3288 -3287 -3286 -3285 -3285 -3286 -3287 -3287 -3287 -3287 -3287 -3287 -3287 -3287 -3286 -3285 -3284 -3282 -3280 -3278 -3277 -3277 -3278 -3280 -3281 -3284 -3286 -3287 -3287 -3288 -3289 -3291 -3292 -3294 -3296 -3297 -3297 -3296 -3295 -3295 -3297 -3299 -3302 -3305 -3309 -3311 -3311 -3312 -3312 -3313 -3315 -3317 -3318 -3319 -3321 -3322 -3323 -3324 -3325 -3327 -3329 -3332 -3334 -3336 -3337 -3337 -3338 -3338 -3338 -3338 -3338 -3339 -3339 -3340 -3341 -3342 -3343 -3344 -3347 -3350 -3352 -3355 -3357 -3360 -3363 -3366 -3367 -3368 -3370 -3372 -3375 -3379 -3382 -3379 -3355 -3155 -2529 -1981 -1788 -1790 -1805 -1776 -1699 -1609 -1538 -1458 -1400 -1361 -1351 -1235 -1106 -959 -794 -689 -556 -468 -424 -401 -379 -345 -319 -297 -263 -224 -190 -169 -154 -142 -148 -152 -152 -150 -146 -143 -141 -140 -138 -136 -133 -129 -129 -127 -128 -126 -123 -121 -119 -117 -115 -112 -109 -107 -106 -102 -97 -91 -87 -86 -83 -79 -76 -74 -74 -74 -74 -74 -74 -73 -72 -71 -70 -69 -70 -69 -67 -67 -67 -66 -65 -65 -64 -64 -63 -63 -63 -62 -61 -61 -61 -60 -59 -59 -59 -58 -58 -57 -56 -56 -55 -54 -53 -52 -52 -52 -51 -50 -48 -48 -47 -46 -46 -44 -44 -43 -42 -42 -42 -41 -40 -40 -40 -39 -40 -39 -38 -37 -37 -37 -37 -35 -35 -35 -34 -33 -33 -33 -31 -32 -31 -31 -30 -29 -28 -27 -27 -26 -26 -26 -24 -24 -24 -24 -24 -22 -22 -21 -20 -21 -20 -20 -19 -19 -19 -18 -18 -18 -17 -17 -17 -16 -16 -16 -16 -15 -15 -14 -14 -14 -13 -13 -13 -12 -12 -11 -10 -10 -9 -9 -9 -8 -8 -8 -7 -7 -6 -6 -6 -6 -6 -6 -5 -5 -5 -4 -4 -3 -2 -2 -1 -1 0 2 3 4 4 4 3 4 5 6 4 5 7 6 4 5 -2 5 -3 10 -1 0 6 8 4 4 3 5 0 1 0 0 0 0 0 0 0 0 -1 -1 -1 -1 -1 -2 -2 -2 -1 6 -1 -4 -4 -4 -3 -3 -7 -12 -29 -65 -92 -114 -138 -158 -180 -198 -214 -237 -262 -288 -332 -428
-3502 -3501 -3500 -3500 -3500 -3500 -3499 -3497 -3496 -3495 -3494 -3494 -3495 -3496 -3498 -3499 -3500 -3500 -3500 -3500 -3496 -3491 -3487 -3483 -3480 -3478 -3475 -3473 -3471 -3469 -3468 -3466 -3465 -3464 -3462 -3461 -3460 -3459 -3459 -3458 -3457 -3457 -3456 -3456 -3455 -3455 -3454 -3454 -3454 -3453 -3453 -3453 -3452 -3452 -3452 -3452 -3451 -3451 -3451 -3451 -3451 -3451 -3451 -3451 -3451 -3451 -3451 -3451 -3451 -3451 -3451 -3451 -3451 -3450 -3450 -3450 -3450 -3450 -3450 -3450 -3451 -3451 -3452 -3452 -3453 -3454 -3455 -3457 -3458 -3460 -3461 -3463 -3465 -3467 -3469 -3472 -3474 -3469 -3461 -3454 -3446 -3439 -3442 -3445 -3447 -3452 -3458 -3452 -3445 -3441 -3437 -3432 -3429 -3429 -3428 -3428 -3429 -3427 -3423 -3422 -3422 -3425 -3428 -3428 -3427 -3427 -3428 -3428 -3422 -3417 -3412 -3406 -3403 -3405 -3406 -3405 -3404 -3402 -3402 -3401 -3400 -3400 -3397 -3395 -3393 -3390 -3389 -3392 -3392 -3391 -3394 -3397 -3400 -3399 -3395 -3391 -3387 -3384 -3383 -3383 -3383 -3383 -3383 -3382 -3379 -3377 -3375 -3374 -3372 -3372 -3372 -3373 -3373 -3373 -3371 -3368 -3367 -3365 -3363 -3356 -3349 -3343 -3340 -3344 -3340 -3335 -3332 -3330 -3329 -3328 -3326 -3325 -3324 -3323 -3323 -3322 -3321 -3321 -3319 -3317 -3314 -3312 -3309 -3308 -3307 -3305 -3302 -3297 -3293 -3291 -3290 -3290 -3290 -3290 -3290 -3290 -3291 -3291 -3291 -3291 -3290 -3290 -3289 -3289 -3289 -3288 -3289 -3289 -3289 -3289 -3289 -3289 -3289 -3289 -3288 -3287 -3285 -3283 -3282 -3281 -3280 -3280 -3280 -3280 -3282 -3284 -3286 -3288 -3289 -3289 -3290 -3291 -3293 -3295 -3297 -3298 -3299 -3298 -3297 -3295 -3295 -3296 -3298 -3302 -3306 -3309 -3311 -3312 -3312 -3312 -3312 -3314 -3316 -3318 -3320 -3321 -3324 -3325 -3326 -3327 -3328 -3329 -3331 -3334 -3336 -3337 -3337 -3338 -3338 -3338 -3338 -3338 -3339 -3340 -3341 -3343 -3344 -3345 -3346 -3348 -3352 -3356 -3359 -3361 -3363 -3366 -3368 -3370 -3370 -3371 -3373 -3375 -3377 -3376 -3360 -3340 -2920 -2091 -1893 -1890 -1973 -1908 -1778 -1704 -1635 -1562 -1517 -1510 -1537 -1472 -1340 -1211 -1064 -914 -772 -614 -497 -435 -406 -387 -361 -333 -314 -282 -247 -211 -179 -161 -148 -146 -148 -151 -150 -146 -144 -141 -139 -137 -135 -133 -129 -129 -127 -128 -126 -122 -120 -119 -118 -114 -112 -109 -107 -105 -102 -97 -91 -88 -86 -82 -78 -76 -75 -74 -75 -74 -74 -74 -73 -72 -70 -69 -69 -70 -69 -67 -67 -67 -66 -65 -65 -64 -64 -63 -63 -62 -61 -61 -61 -61 -60 -59 -59 -59 -58 -58 -57 -55 -56 -55 -54 -53 -53 -52 -52 -51 -49 -48 -48 -47 -46 -45 -45 -44 -43 -42 -42 -42 -41 -40 -40 -40 -40 -40 -39 -38 -38 -37 -37 -37 -36 -35 -35 -34 -33 -33 -32 -31 -32 -31 -31 -29 -29 -29 -27 -27 -27 -26 -26 -25 -25 -24 -23 -22 -22 -22 -22 -21 -20 -20 -20 -19 -19 -19 -18 -18 -18 -18 -17 -17 -17 -16 -16 -15 -14 -14 -14 -14 -13 -13 -13 -12 -12 -11 -11 -10 -10 -10 -9 -9 -8 -8 -8 -7 -7 -6 -6 -6 -6 -6 -6 -5 -5 -5 -4 -4 -3 -2 -2 -1 -1 0 3 2 3 3 4 4 5 4 5 6 3 3 8 10 1 0 0 0 0 0 0 0 3 5 3 5 3 0 0 0 0 0 0 0 0 0 0 -1 -1 -1 -1 -2 -2 -2 -2 -1 0 -1 -4 -4 -5 -4 -8 -13 -21 -41 -81 -103 -127 -149 -170 -188 -204 -221 -244 -266 -294 -337 -432
-3501 -3500 -3500 -3500 -3500 -3500 -3500 -3500 -3499 -3498 -3497 -3498 -3498 -3500 -3501 -3502 -3502 -3502 -3501 -3500 -3498 -3494 -3491 -3488 -3485 -3482 -3480 -3478 -3476 -3474 -3472 -3470 -3469 -3468 -3466 -3465 -3464 -3463 -3462 -3462 -3461 -3460 -3460 -3459 -3459 -3458 -3458 -3458 -3457 -3457 -3457 -3456 -3456 -3456 -3456 -3456 -3455 -3455 -3455 -3455 -3455 -3455 -3455 -3455 -3455 -3455 -3456 -3456 -3456 -3456 -3456 -3456 -3455 -3455 -3455 -3455 -3455 -3455 -3455 -3455 -3455 -3455 -3456 -3456 -3457 -3458 -3459 -3460 -3462 -3463 -3465 -3466 -3468 -3470 -3472 -3473 -3474 -3470 -3464 -3458 -3451 -3444 -3446 -3448 -3450 -3453 -3459 -3454 -3447 -3442 -3438 -3431 -3429 -3431 -3430 -3429 -3429 -3426 -3422 -3420 -3420 -3424 -3427 -3426 -3426 -3425 -3426 -3425 -3420 -3416 -3411 -3406 -3403 -3405 -3405 -3405 -3403 -3401 -3400 -3401 -3402 -3403 -3405 -3403 -3397 -3394 -3392 -3392 -3390 -3389 -3393 -3396 -3400 -3399 -3394 -3390 -3386 -3384 -3382 -3382 -3382 -3383 -3383 -3382 -3379 -3376 -3372 -3370 -3370 -3371 -3372 -3373 -3374 -3374 -3372 -3370 -3368 -3367 -3364 -3358 -3352 -3346 -3340 -3343 -3339 -3334 -3330 -3329 -3328 -3328 -3328 -3327 -3327 -3327 -3326 -3326 -3326 -3325 -3324 -3321 -3317 -3314 -3310 -3309 -3309 -3308 -3305 -3298 -3293 -3292 -3291 -3291 -3291 -3291 -3291 -3291 -3292 -3292 -3292 -3292 -3291 -3291 -3291 -3291 -3291 -3291 -3291 -3291 -3291 -3291 -3291 -3291 -3291 -3291 -3290 -3287 -3284 -3283 -3283 -3282 -3282 -3282 -3282 -3282 -3283 -3284 -3289 -3290 -3291 -3291 -3291 -3292 -3295 -3298 -3299 -3298 -3299 -3298 -3296 -3293 -3293 -3293 -3296 -3301 -3306 -3309 -3310 -3311 -3313 -3311 -3310 -3311 -3315 -3318 -3319 -3320 -3325 -3327 -3328 -3328 -3328 -3329 -3329 -3334 -3336 -3337 -3337 -3337 -3337 -3338 -3338 -3338 -3338 -3339 -3343 -3344 -3345 -3346 -3347 -3348 -3355 -3361 -3362 -3363 -3365 -3369 -3372 -3372 -3372 -3370 -3373 -3374 -3375 -3373 -3329 -3183 -2926 -2184 -2304 -2362 -2309 -2027 -1830 -1736 -1664 -1633 -1639 -1691 -1579 -1521 -1396 -1295 -1157 -983 -831 -686 -529 -455 -412 -397 -387 -356 -328 -300 -266 -230 -191 -171 -159 -143 -146 -150 -151 -148 -145 -141 -139 -137 -135 -133 -130 -129 -128 -128 -125 -121 -119 -119 -117 -113 -111 -109 -107 -104 -101 -97 -92 -89 -86 -82 -78 -75 -74 -74 -74 -74 -74 -74 -74 -72 -71 -70 -70 -69 -68 -67 -67 -67 -66 -65 -65 -63 -63 -63 -63 -62 -61 -61 -61 -60 -60 -60 -59 -59 -58 -58 -57 -55 -55 -55 -54 -53 -53 -52 -51 -50 -49 -48 -48 -47 -45 -45 -45 -44 -43 -42 -42 -42 -41 -40 -40 -40 -40 -40 -39 -38 -38 -37 -37 -37 -36 -35 -35 -34 -33 -33 -32 -31 -32 -31 -30 -31 -29 -29 -27 -27 -27 -26 -26 -25 -25 -24 -23 -23 -22 -21 -21 -20 -20 -20 -20 -19 -19 -19 -19 -19 -19 -18 -17 -17 -17 -16 -16 -15 -14 -14 -14 -14 -13 -13 -12 -12 -12 -11 -11 -10 -10 -10 -9 -9 -8 -8 -8 -7 -7 -7 -6 -6 -6 -6 -6 -5 -5 -4 -4 -3 -3 -2 -2 -1 -1 0 0 0 2 3 4 4 4 3 4 5 8 2 6 -3 0 0 0 0 0 0 0 0 0 0 0 0 0 0 0 0 0 0 0 0 0 0 0 0 -1 -1 -1 -1 -2 -2 -2 5 0 -4 -5 -6 -4 -7 -12 -18 -38 -70 -94 -115 -139 -161 -180 -196 -211 -227 -251 -275 -304 -343 -440
-3500 -3500 -3500 -3501 -3501 -3501 -3502 -3502 -3501 -3501 -3500 -3501 -3501 -3502 -3503 -3504 -3504 -3504 -3503 -3502 -3500 -3497 -3494 -3492 -3489 -3487 -3484 -3482 -3480 -3478 -3476 -3474 -3473 -3471 -3470 -3469 -3468 -3467 -3466 -3465 -3465 -3464 -3463 -3463 -3462 -3462 -3462 -3461 -3461 -3461 -3460 -3460 -3460 -3460 -3459 -3459 -3459 -3459 -3459 -3459 -3459 -3459 -3459 -3459 -3460 -3460 -3460 -3460 -3460 -3460 -3460 -3460 -3460 -3460 -3460 -3459 -3459 -3459 -3459 -3459 -3459 -3459 -3460 -3460 -3461 -3461 -3462 -3464 -3465 -3466 -3468 -3469 -3471 -3473 -3474 -3475 -3475 -3471 -3467 -3462 -3458 -3456 -3453 -3452 -3451 -3452 -3455 -3451 -3446 -3441 -3436 -3436 -3438 -3433 -3431 -3430 -3429 -3425 -3419 -3417 -3419 -3421 -3423 -3424 -3423 -3423 -3422 -3420 -3418 -3415 -3411 -3407 -3405 -3406 -3406 -3405 -3403 -3400 -3400 -3401 -3402 -3405 -3408 -3405 -3399 -3395 -3393 -3392 -3390 -3390 -3392 -3394 -3399 -3399 -3394 -3389 -3385 -3380 -3379 -3381 -3382 -3383 -3383 -3381 -3378 -3375 -3370 -3367 -3368 -3370 -3372 -3373 -3374 -3374 -3373 -3371 -3370 -3368 -3364 -3360 -3355 -3350 -3347 -3343 -3338 -3333 -3329 -3328 -3327 -3327 -3327 -3326 -3326 -3326 -3326 -3326 -3326 -3326 -3325 -3322 -3318 -3313 -3309 -3308 -3307 -3307 -3305 -3299 -3294 -3292 -3292 -3292 -3292 -3292 -3292 -3292 -3292 -3292 -3292 -3292 -3292 -3291 -3291 -3291 -3290 -3290 -3290 -3290 -3290 -3290 -3290 -3290 -3290 -3290 -3289 -3286 -3284 -3283 -3283 -3283 -3283 -3283 -3283 -3283 -3284 -3285 -3289 -3290 -3291 -3291 -3291 -3292 -3294 -3297 -3298 -3298 -3299 -3298 -3296 -3293 -3292 -3292 -3294 -3299 -3304 -3308 -3308 -3308 -3309 -3308 -3307 -3309 -3312 -3315 -3317 -3319 -3322 -3325 -3326 -3327 -3327 -3328 -3329 -3332 -3335 -3336 -3336 -3336 -3337 -3337 -3337 -3337 -3338 -3339 -3343 -3344 -3345 -3346 -3346 -3347 -3354 -3360 -3361 -3361 -3362 -3365 -3367 -3368 -3369 -3367 -3370 -3373 -3375 -3374 -3348 -3280 -2968 -3195 -3126 -2876 -2341 -2152 -1918 -1759 -1717 -1758 -1791 -1747 -1640 -1525 -1434 -1326 -1192 -1047 -862 -707 -600 -501 -423 -401 -387 -371 -343 -314 -284 -250 -213 -181 -162 -146 -142 -150 -151 -149 -147 -143 -139 -137 -135 -133 -131 -129 -127 -127 -125 -121 -120 -119 -117 -113 -111 -108 -106 -104 -101 -96 -92 -88 -85 -81 -79 -76 -74 -73 -75 -74 -75 -74 -73 -72 -71 -70 -70 -69 -68 -67 -67 -67 -66 -65 -65 -64 -63 -63 -63 -62 -61 -61 -61 -60 -60 -60 -59 -59 -58 -58 -57 -55 -55 -54 -54 -53 -53 -52 -51 -49 -48 -48 -48 -47 -45 -44 -44 -44 -43 -42 -42 -42 -41 -40 -40 -40 -40 -40 -39 -38 -38 -37 -37 -36 -36 -35 -35 -35 -33 -33 -31 -31 -32 -31 -31 -30 -29 -29 -27 -27 -26 -26 -25 -24 -24 -24 -23 -22 -22 -21 -21 -20 -20 -20 -20 -20 -19 -19 -19 -19 -19 -18 -18 -17 -17 -16 -16 -15 -14 -14 -14 -13 -13 -12 -12 -12 -12 -11 -11 -10 -10 -10 -9 -9 -9 -8 -8 -7 -7 -7 -6 -6 -6 -6 -5 -5 -5 -4 -4 -3 -3 -3 -2 -2 -1 -1 0 0 0 4 5 2 2 2 3 0 0 0 0 0 0 0 0 0 0 0 0 0 0 0 0 0 0 0 0 0 0 0 0 0 0 0 -1 -1 -1 -1 -2 -2 0 0 -1 0 -3 -4 -5 -4 -5 -9 -12 -37 -63 -85 -103 -128 -153 -172 -189 -203 -217 -235 -260 -284 -311 -351 -442
-3500 -3500 -3502 -3503 -3504 -3504 -3504 -3505 -3504 -3504 -3504 -3504 -3505 -3505 -3505 -3506 -3506 -3505 -3505 -3503 -3502 -3500 -3498 -3496 -3493 -3491 -3488 -3486 -3484 -3482 -3480 -3478 -3476 -3475 -3474 -3473 -3471 -3471 -3470 -3469 -3468 -3468 -3467 -3467 -3466 -3466 -3465 -3465 -3465 -3464 -3464 -3464 -3464 -3463 -3463 -3463 -3463 -3463 -3463 -3463 -3463 -3463 -3463 -3464 -3464 -3464 -3464 -3465 -3465 -3465 -3465 -3465 -3465 -3464 -3464 -3464 -3463 -3463 -3463 -3463 -3463 -3463 -3463 -3464 -3464 -3465 -3466 -3467 -3468 -3469 -3471 -3472 -3474 -3475 -3476 -3476 -3475 -3473 -3470 -3466 -3465 -3464 -3459 -3454 -3451 -3447 -3442 -3443 -3443 -3440 -3437 -3436 -3436 -3434 -3432 -3430 -3429 -3424 -3419 -3411 -3417 -3419 -3421 -3421 -3421 -3421 -3420 -3418 -3416 -3414 -3412 -3411 -3410 -3409 -3408 -3406 -3404 -3402 -3401 -3401 -3402 -3404 -3406 -3403 -3399 -3395 -3392 -3389 -3387 -3388 -3388 -3388 -3395 -3397 -3392 -3388 -3383 -3378 -3377 -3380 -3381 -3382 -3383 -3381 -3378 -3375 -3370 -3367 -3368 -3370 -3372 -3374 -3374 -3374 -3374 -3373 -3372 -3371 -3367 -3362 -3357 -3352 -3348 -3344 -3337 -3332 -3328 -3326 -3325 -3324 -3323 -3323 -3322 -3322 -3322 -3322 -3322 -3321 -3320 -3317 -3314 -3310 -3307 -3305 -3303 -3302 -3300 -3297 -3294 -3293 -3292 -3291 -3291 -3291 -3292 -3292 -3292 -3292 -3292 -3292 -3291 -3291 -3290 -3289 -3288 -3288 -3287 -3287 -3287 -3288 -3288 -3288 -3288 -3288 -3287 -3285 -3284 -3283 -3283 -3283 -3283 -3283 -3283 -3283 -3284 -3286 -3288 -3289 -3290 -3290 -3291 -3291 -3292 -3294 -3295 -3296 -3297 -3297 -3294 -3292 -3290 -3290 -3292 -3295 -3298 -3301 -3302 -3303 -3303 -3303 -3304 -3305 -3307 -3310 -3314 -3316 -3319 -3321 -3323 -3324 -3325 -3327 -3328 -3331 -3332 -3333 -3334 -3335 -3336 -3336 -3336 -3337 -3338 -3340 -3342 -3343 -3344 -3344 -3344 -3346 -3349 -3352 -3354 -3354 -3354 -3354 -3355 -3357 -3361 -3361 -3364 -3370 -3376 -3378 -3377 -3366 -3360 -3359 -2910 -2159 -2059 -2036 -2001 -1902 -1847 -2023 -1942 -1826 -1680 -1562 -1495 -1380 -1263 -1153 -991 -802 -662 -590 -450 -407 -391 -380 -362 -328 -297 -266 -232 -187 -168 -147 -139 -147 -150 -148 -147 -143 -139 -137 -135 -132 -130 -129 -127 -127 -124 -122 -120 -119 -117 -112 -110 -108 -105 -103 -99 -97 -92 -87 -84 -81 -78 -76 -74 -74 -75 -74 -75 -74 -73 -72 -71 -71 -70 -69 -68 -68 -67 -67 -66 -65 -65 -65 -64 -63 -63 -62 -61 -61 -61 -60 -60 -59 -59 -59 -58 -58 -57 -55 -54 -54 -54 -53 -53 -52 -51 -49 -48 -48 -47 -46 -44 -44 -44 -44 -43 -42 -42 -42 -41 -40 -40 -40 -40 -40 -39 -38 -38 -37 -37 -37 -36 -35 -35 -34 -33 -33 -31 -31 -31 -31 -30 -29 -29 -28 -27 -27 -26 -26 -24 -24 -24 -23 -23 -22 -22 -21 -20 -20 -20 -20 -20 -20 -19 -19 -19 -19 -19 -18 -17 -17 -16 -16 -15 -15 -14 -14 -14 -13 -13 -12 -12 -12 -12 -11 -11 -10 -10 -10 -9 -9 -9 -8 -8 -8 -7 -7 -7 -6 -6 -6 -5 -5 -5 -4 -4 -3 -3 -3 -2 -2 -1 -1 -1 0 0 0 0 0 0 0 0 0 0 0 0 0 0 0 0 0 0 0 0 0 0 0 0 0 0 0 0 0 0 0 0 0 0 -1 -1 -1 -1 -2 -2 -2 -2 0 0 -2 -4 -4 -6 -3 -9 -11 -35 -48 -76 -94 -116 -141 -164 -181 -196 -212 -224 -242 -267 -292 -325 -363 -457
-3505 -3505 -3506 -3507 -3507 -3507 -3508 -3508 -3507 -3507 -3507 -3507 -3508 -3508 -3508 -3508 -3508 -3507 -3507 -3506 -3504 -3503 -3501 -3499 -3497 -3495 -3492 -3490 -3488 -3485 -3484 -3482 -3480 -3479 -3477 -3476 -3475 -3474 -3473 -3472 -3472 -3471 -3471 -3470 -3470 -3469 -3469 -3469 -3468 -3468 -3468 -3467 -3467 -3467 -3467 -3467 -3467 -3466 -3466 -3467 -3467 -3467 -3467 -3468 -3468 -3468 -3469 -3469 -3470 -3470 -3470 -3470 -3469 -3469 -3468 -3468 -3467 -3467 -3467 -3466 -3466 -3466 -3466 -3467 -3467 -3468 -3468 -3469 -3470 -3472 -3473 -3475 -3476 -3478 -3479 -3479 -3477 -3475 -3472 -3469 -3468 -3471 -3463 -3456 -3451 -3446 -3440 -3441 -3442 -3440 -3438 -3434 -3433 -3434 -3433 -3430 -3423 -3420 -3419 -3417 -3418 -3419 -3420 -3420 -3420 -3418 -3417 -3416 -3415 -3414 -3413 -3413 -3414 -3411 -3409 -3407 -3405 -3403 -3401 -3401 -3400 -3401 -3402 -3401 -3398 -3394 -3390 -3385 -3385 -3386 -3386 -3385 -3390 -3393 -3390 -3387 -3383 -3380 -3380 -3381 -3382 -3383 -3383 -3382 -3379 -3375 -3371 -3367 -3369 -3372 -3374 -3375 -3375 -3375 -3375 -3375 -3375 -3375 -3372 -3365 -3358 -3353 -3349 -3343 -3335 -3330 -3326 -3324 -3323 -3322 -3320 -3319 -3318 -3318 -3318 -3318 -3317 -3316 -3314 -3311 -3309 -3306 -3303 -3301 -3299 -3298 -3297 -3295 -3294 -3292 -3291 -3291 -3291 -3291 -3291 -3292 -3292 -3292 -3292 -3292 -3291 -3290 -3289 -3287 -3286 -3285 -3284 -3284 -3284 -3285 -3286 -3286 -3286 -3285 -3285 -3284 -3284 -3283 -3283 -3283 -3283 -3283 -3283 -3283 -3284 -3286 -3287 -3288 -3288 -3289 -3290 -3290 -3290 -3291 -3292 -3294 -3294 -3294 -3292 -3290 -3288 -3288 -3288 -3290 -3291 -3293 -3295 -3296 -3298 -3298 -3299 -3300 -3302 -3306 -3311 -3314 -3316 -3318 -3321 -3322 -3323 -3325 -3327 -3329 -3330 -3331 -3332 -3334 -3335 -3335 -3335 -3336 -3338 -3340 -3342 -3342 -3341 -3341 -3342 -3343 -3344 -3346 -3348 -3348 -3347 -3347 -3348 -3352 -3356 -3357 -3359 -3368 -3381 -3383 -3383 -3371 -3098 -2689 -1985 -1924 -1985 -2153 -2160 -2177 -2825 -2248 -1909 -1778 -1680 -1609 -1543 -1441 -1401 -1300 -1147 -910 -755 -625 -486 -412 -406 -387 -377 -346 -312 -283 -252 -209 -176 -154 -142 -143 -147 -149 -147 -142 -138 -136 -134 -132 -129 -129 -127 -127 -124 -121 -119 -118 -116 -112 -110 -107 -105 -102 -100 -97 -91 -87 -85 -81 -77 -77 -76 -74 -74 -74 -74 -74 -73 -72 -72 -72 -70 -69 -68 -68 -67 -67 -66 -65 -65 -65 -64 -63 -63 -62 -61 -61 -60 -60 -60 -60 -59 -59 -58 -57 -56 -55 -54 -53 -53 -52 -52 -52 -50 -49 -48 -48 -47 -46 -44 -44 -44 -44 -43 -42 -42 -42 -41 -40 -40 -40 -40 -39 -39 -38 -37 -37 -37 -36 -36 -35 -35 -34 -33 -33 -32 -31 -31 -31 -29 -29 -29 -28 -27 -27 -26 -26 -25 -24 -24 -23 -22 -22 -20 -21 -20 -20 -20 -20 -20 -20 -20 -19 -19 -19 -18 -18 -17 -17 -16 -16 -15 -15 -14 -14 -14 -13 -13 -12 -12 -11 -11 -11 -11 -11 -10 -10 -10 -9 -9 -8 -8 -8 -7 -7 -7 -6 -6 -6 -5 -5 -5 -4 -4 -3 -3 -3 -2 -2 -1 -1 -1 -1 0 0 0 0 0 0 0 0 0 0 0 0 0 0 0 0 0 0 0 0 0 0 0 0 0 0 0 0 0 0 0 0 -1 -1 -2 -2 -1 -2 -2 -2 1 0 -2 -4 -5 -6 -3 -6 -9 -32 -59 -72 -86 -105 -129 -156 -176 -191 -205 -216 -230 -250 -276 -304 -335 -377 -481
-3512 -3511 -3511 -3511 -3511 -3511 -3511 -3511 -3511 -3511 -3511 -3511 -3511 -3511 -3511 -3511 -3510 -3510 -3509 -3508 -3507 -3505 -3504 -3502 -3500 -3499 -3496 -3494 -3491 -3489 -3487 -3485 -3483 -3482 -3481 -3480 -3478 -3478 -3477 -3476 -3475 -3475 -3474 -3474 -3473 -3473 -3473 -3472 -3472 -3472 -3471 -3471 -3471 -3471 -3471 -3470 -3470 -3470 -3470 -3470 -3470 -3471 -3471 -3472 -3472 -3473 -3473 -3474 -3474 -3475 -3475 -3474 -3474 -3473 -3472 -3472 -3471 -3471 -3470 -3470 -3470 -3470 -3470 -3470 -3470 -3470 -3471 -3472 -3473 -3474 -3475 -3477 -3479 -3481 -3483 -3485 -3487 -3481 -3475 -3470 -3467 -3464 -3460 -3455 -3451 -3448 -3443 -3444 -3443 -3440 -3438 -3437 -3438 -3436 -3435 -3431 -3424 -3420 -3419 -3419 -3419 -3419 -3420 -3419 -3418 -3416 -3412 -3409 -3412 -3413 -3413 -3414 -3415 -3412 -3410 -3408 -3408 -3407 -3402 -3399 -3398 -3399 -3401 -3400 -3397 -3393 -3389 -3384 -3385 -3386 -3386 -3386 -3389 -3391 -3388 -3386 -3384 -3383 -3383 -3382 -3383 -3383 -3383 -3382 -3380 -3377 -3373 -3370 -3372 -3374 -3376 -3377 -3378 -3378 -3377 -3376 -3376 -3378 -3375 -3366 -3359 -3352 -3347 -3338 -3331 -3325 -3322 -3321 -3321 -3320 -3317 -3314 -3313 -3314 -3314 -3314 -3313 -3312 -3309 -3306 -3304 -3302 -3298 -3296 -3295 -3294 -3294 -3293 -3293 -3292 -3291 -3290 -3290 -3291 -3292 -3292 -3292 -3292 -3292 -3292 -3291 -3290 -3287 -3285 -3284 -3283 -3281 -3281 -3282 -3283 -3284 -3284 -3284 -3284 -3284 -3283 -3283 -3283 -3283 -3283 -3283 -3283 -3283 -3283 -3284 -3285 -3288 -3289 -3287 -3287 -3289 -3288 -3286 -3287 -3289 -3292 -3293 -3292 -3291 -3287 -3287 -3286 -3287 -3287 -3287 -3287 -3288 -3292 -3293 -3293 -3294 -3295 -3297 -3303 -3309 -3311 -3312 -3315 -3319 -3320 -3321 -3323 -3327 -3328 -3329 -3330 -3331 -3333 -3336 -3334 -3332 -3335 -3338 -3341 -3343 -3340 -3339 -3339 -3339 -3339 -3341 -3343 -3345 -3347 -3347 -3347 -3349 -3354 -3358 -3360 -3363 -3367 -3377 -3384 -3385 -3372 -3050 -2543 -2072 -1983 -2174 -2476 -2603 -2702 -3011 -2207 -1945 -1795 -1728 -1708 -1643 -1574 -1531 -1401 -1216 -1008 -795 -625 -534 -448 -406 -389 -380 -361 -327 -298 -266 -231 -193 -158 -142 -140 -145 -147 -145 -141 -138 -136 -133 -131 -129 -129 -127 -126 -125 -121 -118 -117 -115 -112 -110 -107 -105 -102 -101 -97 -91 -87 -85 -80 -77 -76 -75 -74 -75 -75 -75 -74 -73 -71 -71 -72 -69 -69 -69 -68 -67 -67 -67 -65 -65 -65 -64 -63 -63 -63 -61 -61 -61 -60 -60 -59 -59 -59 -58 -57 -56 -54 -54 -53 -52 -52 -52 -51 -50 -49 -48 -47 -47 -46 -44 -44 -44 -44 -43 -42 -42 -42 -41 -41 -40 -40 -39 -39 -38 -38 -37 -37 -36 -36 -35 -35 -34 -34 -33 -33 -32 -31 -31 -31 -29 -29 -29 -28 -27 -27 -26 -26 -24 -24 -24 -23 -22 -22 -21 -21 -21 -21 -21 -21 -20 -20 -20 -19 -19 -19 -18 -17 -17 -16 -17 -16 -16 -15 -15 -14 -14 -14 -13 -12 -12 -11 -11 -11 -11 -11 -10 -10 -10 -9 -9 -8 -8 -8 -7 -7 -7 -6 -6 -6 -5 -5 -5 -4 -4 -3 -3 -3 -2 -2 -2 -1 -1 -1 -1 0 0 0 0 0 0 0 0 0 0 0 0 0 0 0 0 0 0 0 0 0 0 0 0 0 0 0 0 0 0 -1 -2 -2 -2 -2 -2 -1 -1 0 -2 -2 -4 -5 -6 -5 -4 -8 -27 -49 -70 -81 -96 -119 -144 -169 -184 -199 -213 -223 -239 -261 -286 -316 -349 -396 -500
-3517 -3516 -3515 -3515 -3515 -3515 -3514 -3514 -3514 -3514 -3514 -3514 -3514 -3514 -3513 -3513 -3513 -3512 -3511 -3510 -3509 -3508 -3507 -3505 -3504 -3502 -3500 -3497 -3495 -3493 -3490 -3488 -3487 -3485 -3484 -3483 -3482 -3481 -3480 -3479 -3479 -3478 -3478 -3477 -3477 -3477 -3476 -3476 -3476 -3475 -3475 -3475 -3475 -3474 -3474 -3474 -3474 -3474 -3474 -3474 -3474 -3474 -3475 -3475 -3476 -3477 -3478 -3479 -3479 -3480 -3480 -3479 -3478 -3477 -3476 -3476 -3475 -3474 -3474 -3473 -3473 -3472 -3472 -3472 -3473 -3473 -3473 -3474 -3475 -3476 -3477 -3479 -3481 -3483 -3485 -3488 -3492 -3485 -3477 -3470 -3464 -3458 -3454 -3453 -3451 -3451 -3453 -3451 -3445 -3441 -3437 -3435 -3435 -3433 -3442 -3434 -3423 -3420 -3420 -3420 -3419 -3419 -3420 -3419 -3418 -3417 -3415 -3413 -3413 -3413 -3412 -3412 -3412 -3410 -3409 -3408 -3407 -3406 -3400 -3396 -3394 -3394 -3398 -3400 -3396 -3391 -3388 -3387 -3386 -3386 -3387 -3389 -3392 -3389 -3387 -3384 -3384 -3383 -3383 -3383 -3383 -3383 -3383 -3383 -3381 -3380 -3378 -3376 -3377 -3378 -3378 -3379 -3381 -3381 -3379 -3378 -3376 -3376 -3372 -3366 -3359 -3351 -3340 -3334 -3328 -3322 -3320 -3320 -3320 -3319 -3316 -3312 -3311 -3311 -3311 -3311 -3310 -3309 -3306 -3303 -3302 -3300 -3295 -3293 -3292 -3292 -3292 -3292 -3292 -3292 -3291 -3290 -3291 -3292 -3292 -3292 -3292 -3292 -3292 -3292 -3291 -3289 -3286 -3284 -3283 -3283 -3281 -3281 -3282 -3283 -3283 -3283 -3283 -3283 -3283 -3283 -3283 -3283 -3284 -3283 -3283 -3283 -3283 -3283 -3283 -3284 -3288 -3289 -3287 -3287 -3289 -3288 -3286 -3286 -3289 -3292 -3292 -3292 -3291 -3287 -3287 -3286 -3287 -3287 -3288 -3289 -3290 -3292 -3293 -3293 -3293 -3294 -3296 -3301 -3307 -3309 -3311 -3314 -3318 -3320 -3320 -3322 -3327 -3328 -3328 -3329 -3330 -3332 -3335 -3333 -3331 -3334 -3338 -3342 -3344 -3340 -3339 -3339 -3339 -3340 -3342 -3344 -3347 -3347 -3348 -3349 -3351 -3356 -3360 -3363 -3366 -3368 -3376 -3383 -3384 -3383 -3219 -2967 -2724 -2246 -2610 -2873 -3023 -3186 -2775 -2104 -1933 -1887 -1914 -1915 -1830 -1714 -1597 -1462 -1304 -1107 -909 -750 -644 -517 -406 -391 -391 -384 -356 -320 -285 -253 -220 -185 -147 -139 -142 -146 -145 -140 -136 -135 -132 -130 -129 -129 -126 -126 -124 -121 -119 -118 -116 -111 -109 -107 -104 -102 -100 -95 -89 -86 -85 -80 -78 -76 -75 -74 -75 -75 -75 -74 -72 -71 -71 -71 -70 -69 -69 -68 -67 -67 -66 -65 -65 -65 -65 -63 -63 -63 -62 -62 -61 -60 -60 -59 -59 -59 -58 -57 -56 -54 -53 -53 -52 -52 -51 -50 -50 -49 -48 -47 -46 -46 -44 -44 -44 -44 -43 -42 -42 -42 -41 -40 -40 -39 -38 -38 -38 -38 -37 -37 -36 -35 -35 -34 -34 -33 -33 -33 -31 -30 -30 -29 -29 -29 -28 -27 -27 -26 -26 -25 -24 -24 -23 -23 -23 -22 -22 -22 -22 -21 -22 -21 -21 -20 -20 -20 -19 -19 -18 -18 -17 -17 -17 -17 -16 -16 -15 -15 -14 -14 -13 -13 -12 -12 -12 -11 -11 -11 -10 -10 -10 -9 -9 -9 -8 -8 -7 -7 -7 -6 -6 -5 -5 -5 -4 -4 -4 -3 -3 -3 -2 -2 -2 -1 -1 -1 -1 -1 0 0 0 0 0 0 0 0 0 0 0 0 0 0 0 0 0 0 0 0 0 0 0 0 0 0 0 0 0 -1 -2 -1 -2 -2 -2 -2 -1 -2 -3 -3 -3 -3 -6 -6 -6 -27 -44 -64 -78 -92 -109 -131 -157 -180 -193 -208 -218 -231 -244 -269 -296 -329 -364 -413 -525
-3522 -3521 -3520 -3519 -3519 -3518 -3518 -3518 -3517 -3517 -3517 -3517 -3517 -3517 -3516 -3516 -3515 -3515 -3514 -3513 -3512 -3511 -3510 -3508 -3507 -3505 -3503 -3501 -3498 -3496 -3494 -3492 -3490 -3488 -3487 -3486 -3485 -3484 -3484 -3483 -3482 -3482 -3481 -3481 -3481 -3480 -3480 -3480 -3479 -3479 -3479 -3479 -3478 -3478 -3478 -3478 -3478 -3478 -3478 -3478 -3478 -3478 -3478 -3479 -3480 -3481 -3482 -3483 -3484 -3485 -3485 -3484 -3483 -3481 -3480 -3479 -3478 -3477 -3477 -3476 -3476 -3475 -3475 -3475 -3475 -3475 -3475 -3476 -3477 -3478 -3479 -3480 -3482 -3485 -3487 -3490 -3492 -3486 -3477 -3469 -3461 -3452 -3449 -3450 -3450 -3452 -3455 -3453 -3446 -3440 -3436 -3432 -3435 -3440 -3441 -3433 -3422 -3420 -3420 -3420 -3418 -3418 -3419 -3418 -3418 -3418 -3420 -3422 -3416 -3412 -3410 -3407 -3405 -3407 -3407 -3407 -3403 -3398 -3396 -3392 -3385 -3381 -3392 -3398 -3394 -3387 -3383 -3383 -3383 -3384 -3386 -3390 -3396 -3393 -3387 -3385 -3383 -3383 -3383 -3384 -3384 -3384 -3384 -3384 -3383 -3383 -3382 -3381 -3381 -3380 -3380 -3381 -3382 -3383 -3380 -3378 -3376 -3372 -3368 -3365 -3360 -3353 -3342 -3334 -3328 -3324 -3322 -3321 -3320 -3319 -3317 -3314 -3313 -3312 -3311 -3310 -3309 -3308 -3305 -3303 -3302 -3299 -3296 -3294 -3293 -3292 -3292 -3292 -3293 -3292 -3292 -3291 -3291 -3292 -3293 -3293 -3292 -3292 -3292 -3292 -3291 -3290 -3287 -3286 -3285 -3284 -3282 -3282 -3283 -3284 -3285 -3285 -3285 -3285 -3285 -3285 -3285 -3285 -3285 -3285 -3285 -3285 -3285 -3285 -3285 -3286 -3288 -3289 -3288 -3288 -3289 -3288 -3287 -3288 -3290 -3292 -3293 -3293 -3292 -3290 -3289 -3289 -3290 -3292 -3294 -3298 -3298 -3296 -3296 -3295 -3295 -3296 -3298 -3302 -3306 -3309 -3311 -3314 -3318 -3320 -3322 -3324 -3326 -3327 -3328 -3329 -3330 -3331 -3332 -3332 -3332 -3334 -3337 -3340 -3341 -3341 -3341 -3341 -3342 -3344 -3346 -3346 -3348 -3349 -3350 -3352 -3355 -3359 -3363 -3366 -3368 -3371 -3376 -3381 -3384 -3385 -3342 -3273 -3053 -3110 -3286 -3289 -3313 -3241 -2771 -2226 -2039 -2175 -2139 -2267 -2081 -1763 -1591 -1470 -1332 -1169 -952 -792 -661 -542 -442 -386 -390 -383 -364 -332 -298 -268 -240 -200 -167 -144 -140 -144 -144 -140 -137 -135 -131 -129 -129 -129 -127 -126 -124 -121 -119 -117 -116 -111 -109 -107 -104 -102 -100 -93 -88 -86 -85 -80 -77 -75 -74 -74 -75 -75 -75 -74 -73 -72 -71 -71 -70 -69 -69 -68 -67 -67 -66 -65 -65 -65 -64 -63 -63 -63 -63 -62 -61 -60 -60 -60 -59 -59 -58 -56 -56 -53 -52 -52 -52 -52 -51 -49 -49 -49 -48 -46 -46 -46 -44 -44 -44 -44 -42 -42 -41 -41 -40 -40 -40 -39 -38 -38 -38 -37 -37 -37 -36 -35 -35 -33 -33 -33 -33 -32 -31 -29 -30 -29 -28 -28 -27 -27 -26 -26 -26 -25 -24 -24 -24 -23 -23 -22 -22 -23 -22 -20 -22 -21 -21 -21 -20 -20 -19 -19 -18 -18 -17 -17 -17 -17 -17 -16 -16 -15 -15 -14 -14 -13 -13 -12 -12 -12 -11 -11 -11 -10 -10 -10 -9 -9 -8 -8 -7 -7 -7 -6 -6 -5 -5 -5 -4 -4 -4 -3 -3 -3 -2 -2 -2 -2 -1 -1 -1 -1 -1 0 0 0 0 0 0 0 0 0 0 0 0 0 0 0 0 0 0 0 0 0 0 0 0 0 0 -1 -1 -1 -1 -1 -1 -2 -2 -1 -1 -1 -3 -4 -5 -7 -4 -5 -20 -41 -64 -77 -90 -104 -123 -146 -172 -188 -203 -215 -226 -239 -257 -281 -306 -341 -380 -434 -548
-3526 -3525 -3524 -3523 -3522 -3522 -3522 -3521 -3521 -3521 -3520 -3520 -3520 -3520 -3519 -3519 -3518 -3518 -3517 -3516 -3515 -3514 -3513 -3511 -3510 -3508 -3506 -3504 -3501 -3499 -3496 -3495 -3493 -3491 -3490 -3489 -3488 -3488 -3487 -3486 -3486 -3485 -3485 -3485 -3484 -3484 -3484 -3483 -3483 -3483 -3483 -3482 -3482 -3482 -3482 -3481 -3481 -3481 -3481 -3481 -3481 -3481 -3482 -3482 -3483 -3484 -3486 -3488 -3490 -3491 -3490 -3489 -3487 -3485 -3484 -3482 -3481 -3480 -3480 -3479 -3478 -3478 -3477 -3477 -3477 -3477 -3477 -3478 -3478 -3479 -3480 -3482 -3483 -3486 -3488 -3491 -3492 -3486 -3477 -3468 -3459 -3449 -3446 -3446 -3447 -3448 -3449 -3449 -3444 -3440 -3436 -3432 -3439 -3451 -3436 -3430 -3422 -3421 -3421 -3419 -3415 -3416 -3417 -3417 -3417 -3417 -3417 -3416 -3415 -3411 -3407 -3404 -3403 -3404 -3407 -3406 -3403 -3398 -3389 -3390 -3375 -3342 -3368 -3392 -3387 -3380 -3365 -3377 -3377 -3377 -3380 -3387 -3396 -3396 -3391 -3386 -3383 -3383 -3383 -3384 -3385 -3386 -3387 -3387 -3386 -3385 -3384 -3383 -3382 -3382 -3382 -3382 -3383 -3383 -3381 -3379 -3376 -3372 -3369 -3367 -3364 -3360 -3351 -3335 -3327 -3325 -3324 -3323 -3322 -3321 -3319 -3317 -3315 -3314 -3313 -3311 -3309 -3307 -3306 -3304 -3303 -3300 -3298 -3295 -3294 -3293 -3293 -3293 -3294 -3294 -3293 -3293 -3294 -3294 -3294 -3293 -3293 -3292 -3292 -3292 -3291 -3290 -3289 -3288 -3287 -3286 -3285 -3285 -3286 -3286 -3287 -3287 -3287 -3287 -3287 -3287 -3287 -3287 -3287 -3287 -3287 -3287 -3287 -3287 -3287 -3288 -3289 -3289 -3289 -3289 -3290 -3289 -3289 -3290 -3291 -3293 -3294 -3295 -3294 -3294 -3293 -3293 -3294 -3296 -3300 -3304 -3304 -3300 -3298 -3298 -3298 -3298 -3300 -3302 -3306 -3309 -3311 -3314 -3318 -3321 -3323 -3325 -3326 -3327 -3328 -3329 -3329 -3330 -3331 -3331 -3332 -3333 -3336 -3339 -3341 -3342 -3342 -3343 -3344 -3345 -3347 -3347 -3349 -3350 -3352 -3355 -3358 -3362 -3365 -3368 -3370 -3373 -3376 -3379 -3382 -3383 -3375 -3361 -3355 -3376 -3331 -3373 -3315 -2897 -2539 -2478 -2351 -2352 -2491 -2397 -2053 -1773 -1625 -1500 -1376 -1233 -1057 -895 -754 -636 -516 -415 -400 -388 -378 -354 -317 -292 -259 -233 -192 -149 -136 -140 -143 -141 -137 -134 -131 -129 -129 -129 -127 -126 -124 -121 -120 -117 -115 -110 -109 -106 -104 -101 -98 -90 -86 -86 -85 -80 -78 -75 -74 -74 -75 -75 -74 -74 -73 -72 -71 -71 -70 -69 -69 -68 -67 -67 -65 -65 -65 -65 -64 -63 -63 -63 -62 -61 -61 -60 -60 -60 -59 -59 -57 -56 -56 -53 -52 -52 -52 -51 -51 -49 -48 -49 -48 -47 -46 -46 -44 -44 -44 -44 -42 -42 -42 -42 -41 -40 -39 -38 -38 -38 -38 -37 -37 -37 -35 -34 -34 -33 -33 -33 -32 -31 -30 -29 -29 -29 -28 -27 -27 -27 -26 -26 -26 -26 -24 -24 -24 -24 -23 -22 -22 -22 -22 -21 -21 -21 -21 -21 -20 -20 -20 -19 -19 -18 -18 -17 -17 -17 -17 -17 -16 -15 -15 -14 -14 -13 -13 -13 -12 -12 -11 -11 -11 -10 -10 -10 -9 -9 -8 -8 -7 -7 -7 -6 -6 -5 -5 -5 -4 -4 -4 -3 -3 -3 -2 -2 -2 -2 -1 -1 -1 -1 -1 -1 0 0 0 0 0 0 0 0 0 0 0 0 0 0 0 0 0 0 0 0 0 0 0 0 0 -2 -2 -2 -1 -1 -1 -2 0 -1 -3 -4 -4 -6 -5 -5 -9 -11 -35 -54 -76 -85 -98 -115 -135 -158 -183 -197 -213 -225 -234 -249 -268 -291 -320 -357 -399 -461 -573
-3530 -3529 -3528 -3527 -3526 -3526 -3525 -3525 -3524 -3524 -3524 -3523 -3523 -3523 -3522 -3522 -3521 -3521 -3520 -3519 -3518 -3517 -3516 -3514 -3513 -3511 -3509 -3507 -3505 -3502 -3499 -3497 -3496 -3494 -3493 -3492 -3492 -3491 -3490 -3490 -3489 -3489 -3489 -3488 -3488 -3488 -3487 -3487 -3487 -3487 -3486 -3486 -3486 -3486 -3485 -3485 -3485 -3485 -3485 -3484 -3484 -3485 -3485 -3486 -3486 -3488 -3489 -3492 -3495 -3498 -3497 -3494 -3491 -3489 -3487 -3485 -3484 -3483 -3482 -3481 -3481 -3480 -3480 -3479 -3479 -3479 -3479 -3479 -3479 -3480 -3481 -3482 -3484 -3486 -3488 -3491 -3493 -3486 -3477 -3467 -3457 -3447 -3442 -3444 -3444 -3444 -3444 -3443 -3441 -3439 -3437 -3433 -3434 -3438 -3434 -3429 -3426 -3424 -3419 -3413 -3406 -3410 -3414 -3415 -3415 -3416 -3416 -3416 -3413 -3409 -3404 -3400 -3399 -3402 -3407 -3411 -3386 -3386 -3348 -3383 -3365 -3211 -3236 -3292 -3292 -3271 -3283 -3361 -3351 -3360 -3360 -3376 -3394 -3398 -3394 -3389 -3385 -3383 -3384 -3384 -3385 -3387 -3390 -3391 -3388 -3386 -3385 -3383 -3383 -3383 -3383 -3383 -3383 -3383 -3381 -3379 -3378 -3377 -3375 -3371 -3368 -3367 -3361 -3336 -3326 -3326 -3325 -3325 -3324 -3323 -3320 -3318 -3317 -3316 -3314 -3312 -3309 -3307 -3306 -3306 -3304 -3302 -3299 -3296 -3294 -3293 -3293 -3294 -3295 -3295 -3294 -3295 -3295 -3295 -3295 -3293 -3293 -3293 -3293 -3292 -3291 -3291 -3290 -3289 -3289 -3289 -3288 -3288 -3288 -3289 -3289 -3289 -3289 -3289 -3289 -3289 -3289 -3289 -3289 -3289 -3289 -3289 -3289 -3289 -3289 -3290 -3290 -3290 -3290 -3291 -3291 -3291 -3291 -3291 -3292 -3295 -3297 -3297 -3297 -3297 -3297 -3297 -3298 -3299 -3302 -3306 -3306 -3302 -3300 -3299 -3299 -3300 -3301 -3303 -3307 -3309 -3311 -3314 -3319 -3322 -3325 -3326 -3327 -3328 -3328 -3329 -3329 -3329 -3329 -3330 -3330 -3332 -3335 -3338 -3341 -3343 -3344 -3345 -3345 -3346 -3347 -3348 -3349 -3351 -3354 -3357 -3361 -3365 -3368 -3370 -3372 -3374 -3375 -3377 -3379 -3380 -3381 -3380 -3380 -3379 -3381 -3387 -3356 -2667 -2503 -2692 -2618 -2963 -3360 -2558 -2103 -1855 -1697 -1547 -1440 -1273 -1154 -990 -865 -713 -594 -476 -406 -396 -410 -384 -342 -310 -274 -245 -215 -171 -137 -136 -142 -140 -137 -135 -131 -128 -128 -129 -128 -126 -124 -121 -120 -117 -115 -110 -108 -105 -103 -101 -97 -89 -86 -85 -82 -79 -77 -75 -73 -74 -75 -74 -73 -72 -72 -73 -72 -70 -69 -69 -69 -68 -67 -66 -65 -65 -65 -65 -64 -63 -63 -63 -62 -61 -61 -60 -60 -60 -59 -59 -57 -56 -56 -53 -52 -52 -52 -52 -51 -50 -48 -47 -47 -47 -46 -45 -44 -44 -44 -44 -42 -42 -41 -40 -40 -39 -39 -38 -38 -38 -37 -37 -36 -35 -34 -34 -34 -33 -33 -32 -31 -31 -30 -29 -29 -29 -28 -27 -27 -27 -26 -26 -26 -26 -25 -24 -24 -24 -23 -22 -22 -22 -22 -22 -21 -21 -21 -21 -21 -20 -20 -20 -19 -19 -18 -18 -17 -17 -17 -17 -16 -16 -15 -15 -14 -14 -13 -13 -12 -12 -12 -11 -11 -11 -10 -10 -9 -9 -8 -8 -7 -7 -6 -6 -6 -5 -5 -5 -4 -4 -4 -3 -3 -3 -3 -2 -2 -2 -2 -1 -1 -1 -1 -1 -1 0 0 0 0 0 0 0 0 0 0 0 0 0 0 0 0 0 0 0 0 0 0 -1 -1 -1 -1 -2 -2 -2 -1 -1 -1 -3 -5 -5 -3 -4 -5 -6 -17 -36 -49 -72 -86 -92 -111 -128 -148 -173 -194 -209 -224 -234 -244 -258 -279 -303 -337 -374 -421 -489 -588
-3534 -3533 -3531 -3530 -3530 -3529 -3528 -3528 -3527 -3527 -3527 -3526 -3526 -3525 -3525 -3525 -3524 -3523 -3523 -3522 -3521 -3520 -3519 -3518 -3516 -3515 -3513 -3511 -3508 -3505 -3502 -3500 -3498 -3497 -3496 -3495 -3495 -3494 -3493 -3493 -3493 -3492 -3492 -3492 -3492 -3491 -3491 -3491 -3491 -3490 -3490 -3490 -3489 -3489 -3489 -3489 -3489 -3488 -3488 -3488 -3488 -3488 -3488 -3489 -3489 -3491 -3492 -3494 -3498 -3500 -3500 -3496 -3492 -3490 -3488 -3486 -3484 -3483 -3482 -3481 -3480 -3479 -3479 -3478 -3478 -3478 -3478 -3478 -3479 -3480 -3481 -3482 -3484 -3486 -3488 -3491 -3493 -3486 -3477 -3467 -3456 -3445 -3441 -3442 -3442 -3441 -3437 -3439 -3440 -3437 -3435 -3432 -3431 -3432 -3430 -3429 -3429 -3425 -3419 -3414 -3405 -3407 -3411 -3413 -3414 -3416 -3419 -3419 -3410 -3405 -3401 -3395 -3394 -3402 -3407 -3400 -3334 -3282 -3223 -3299 -3173 -3077 -3025 -3014 -3086 -3022 -3196 -3303 -3242 -3218 -3306 -3357 -3391 -3400 -3396 -3392 -3388 -3385 -3383 -3384 -3385 -3387 -3390 -3392 -3390 -3387 -3385 -3384 -3383 -3384 -3384 -3384 -3383 -3383 -3381 -3380 -3379 -3378 -3378 -3373 -3371 -3369 -3363 -3338 -3328 -3328 -3328 -3328 -3327 -3326 -3322 -3319 -3318 -3318 -3317 -3314 -3307 -3306 -3307 -3308 -3307 -3303 -3300 -3296 -3293 -3292 -3293 -3294 -3296 -3296 -3297 -3297 -3297 -3298 -3297 -3293 -3293 -3294 -3294 -3292 -3292 -3292 -3292 -3291 -3291 -3291 -3291 -3291 -3291 -3291 -3291 -3291 -3291 -3291 -3291 -3291 -3291 -3291 -3291 -3291 -3291 -3291 -3291 -3291 -3291 -3291 -3292 -3292 -3292 -3292 -3292 -3292 -3292 -3292 -3293 -3297 -3300 -3300 -3300 -3300 -3300 -3300 -3300 -3301 -3303 -3306 -3307 -3303 -3302 -3301 -3301 -3301 -3302 -3303 -3308 -3309 -3310 -3313 -3319 -3323 -3326 -3327 -3328 -3328 -3328 -3328 -3328 -3328 -3329 -3329 -3329 -3331 -3334 -3337 -3340 -3344 -3345 -3346 -3346 -3347 -3347 -3347 -3348 -3352 -3355 -3358 -3363 -3368 -3372 -3373 -3373 -3374 -3375 -3375 -3375 -3377 -3382 -3379 -3377 -3381 -3382 -3373 -3160 -2667 -2961 -3124 -3162 -3189 -3220 -3022 -2404 -2050 -1961 -1801 -1584 -1428 -1287 -1208 -1097 -856 -682 -528 -428 -406 -411 -411 -368 -329 -299 -267 -237 -203 -159 -138 -139 -138 -137 -136 -132 -127 -127 -128 -127 -126 -124 -121 -119 -116 -115 -110 -107 -104 -102 -100 -96 -90 -85 -84 -82 -79 -77 -74 -73 -73 -73 -73 -73 -72 -72 -72 -72 -70 -69 -69 -68 -68 -67 -66 -65 -65 -65 -65 -65 -63 -63 -63 -62 -61 -61 -61 -60 -59 -59 -59 -58 -57 -55 -53 -52 -52 -52 -51 -49 -49 -48 -47 -47 -46 -46 -45 -44 -44 -44 -42 -42 -43 -41 -41 -40 -39 -39 -38 -38 -37 -37 -37 -36 -34 -35 -34 -33 -33 -33 -32 -31 -31 -30 -29 -29 -29 -28 -27 -27 -26 -26 -26 -26 -25 -25 -24 -24 -23 -23 -23 -22 -22 -22 -22 -22 -22 -22 -21 -21 -21 -20 -20 -19 -19 -18 -18 -18 -17 -17 -17 -16 -15 -15 -14 -14 -13 -13 -12 -12 -12 -12 -11 -11 -11 -10 -10 -9 -9 -8 -8 -7 -7 -6 -6 -6 -5 -5 -5 -4 -4 -4 -3 -3 -3 -3 -2 -2 -2 -2 -1 -1 -1 -1 -1 -1 -1 -1 0 0 0 0 0 0 0 0 0 0 0 0 0 0 0 0 -1 -1 -1 -1 -1 -2 -1 -1 -2 -1 -1 0 -1 -1 -4 -6 -5 -5 -6 -10 -29 -37 -55 -72 -84 -95 -105 -121 -138 -162 -185 -204 -221 -232 -243 -250 -268 -291 -317 -355 -396 -439 -519 -606
-3572 -3585 -3574 -3570 -3549 -3528 -3502 -3465 -3448 -3408 -3419 -3405 -3445 -3464 -3498 -3521 -3528 -3530 -3529 -3530 -3528 -3529 -3526 -3524 -3520 -3515 -3516 -3518 -3515 -3516 -3516 -3521 -3518 -3522 -3513 -3511 -3506 -3507 -3506 -3509 -3504 -3501 -3494 -3487 -3486 -3483 -3492 -3501 -3510 -3523 -3521 -3527 -3516 -3515 -3504 -3501 -3496 -3497 -3494 -3495 -3492 -3491 -3491 -3492 -3492 -3493 -3494 -3496 -3498 -3499 -3498 -3496 -3494 -3491 -3489 -3488 -3486 -3485 -3484 -3482 -3481 -3480 -3480 -3479 -3479 -3479 -3478 -3479 -3479 -3480 -3481 -3482 -3484 -3486 -3488 -3490 -3492 -3486 -3476 -3467 -3457 -3446 -3442 -3442 -3442 -3441 -3440 -3443 -3443 -3438 -3433 -3433 -3431 -3428 -3427 -3428 -3428 -3407 -3397 -3401 -3408 -3407 -3409 -3414 -3416 -3417 -3419 -3415 -3403 -3399 -3399 -3394 -3394 -3402 -3401 -3393 -3361 -3085 -2963 -3016 -2957 -2880 -2841 -2849 -2869 -2888 -3006 -3087 -3033 -3046 -3286 -3333 -3384 -3401 -3398 -3394 -3390 -3386 -3383 -3384 -3385 -3387 -3390 -3392 -3390 -3387 -3386 -3384 -3384 -3385 -3385 -3384 -3384 -3383 -3382 -3380 -3379 -3377 -3374 -3373 -3371 -3370 -3366 -3348 -3337 -3332 -3331 -3330 -3329 -3327 -3323 -3321 -3320 -3319 -3319 -3316 -3308 -3307 -3307 -3309 -3309 -3305 -3302 -3298 -3295 -3295 -3295 -3296 -3299 -3299 -3299 -3299 -3301 -3301 -3299 -3296 -3296 -3297 -3296 -3295 -3295 -3295 -3294 -3294 -3294 -3294 -3294 -3294 -3293 -3293 -3293 -3293 -3293 -3293 -3293 -3293 -3293 -3293 -3293 -3293 -3294 -3294 -3294 -3294 -3293 -3293 -3293 -3293 -3292 -3292 -3292 -3292 -3293 -3294 -3295 -3298 -3300 -3301 -3301 -3301 -3302 -3302 -3303 -3304 -3307 -3313 -3315 -3309 -3306 -3304 -3304 -3303 -3304 -3305 -3308 -3309 -3309 -3312 -3317 -3321 -3324 -3325 -3326 -3326 -3327 -3327 -3327 -3328 -3328 -3329 -3330 -3331 -3334 -3337 -3340 -3343 -3345 -3346 -3348 -3349 -3350 -3350 -3350 -3353 -3357 -3360 -3364 -3368 -3372 -3373 -3374 -3374 -3375 -3375 -3376 -3378 -3380 -3380 -3380 -3382 -3382 -3369 -3282 -3378 -3376 -3368 -3373 -3270 -2956 -2513 -2455 -2504 -2378 -1980 -1668 -1553 -1453 -1471 -1293 -1005 -721 -559 -467 -416 -417 -419 -392 -350 -319 -287 -255 -224 -188 -148 -138 -136 -136 -137 -131 -127 -126 -128 -127 -126 -124 -120 -120 -116 -115 -109 -106 -104 -102 -99 -95 -89 -86 -84 -82 -79 -75 -72 -71 -72 -73 -73 -73 -73 -71 -72 -71 -70 -69 -69 -68 -68 -67 -66 -65 -65 -65 -64 -64 -63 -63 -62 -61 -61 -61 -61 -60 -59 -58 -58 -58 -57 -56 -52 -52 -52 -51 -50 -50 -49 -47 -47 -46 -46 -46 -45 -44 -44 -44 -43 -43 -42 -40 -40 -39 -38 -38 -38 -37 -37 -37 -36 -34 -34 -34 -33 -33 -33 -33 -31 -31 -30 -29 -29 -29 -29 -27 -27 -27 -26 -26 -26 -25 -25 -25 -24 -24 -23 -22 -23 -22 -22 -22 -22 -22 -22 -21 -21 -21 -21 -20 -19 -19 -19 -18 -18 -17 -17 -17 -16 -16 -15 -15 -14 -14 -13 -13 -13 -13 -12 -12 -11 -11 -11 -10 -10 -9 -9 -8 -8 -7 -7 -6 -6 -5 -5 -5 -4 -4 -4 -4 -3 -3 -3 -3 -2 -2 -2 -2 -2 -1 -1 -1 -1 -1 -1 -1 -1 -1 -1 -1 0 0 0 0 0 0 0 0 0 -1 0 -1 -2 -2 -2 -1 -1 -2 -2 -2 -2 -2 -1 -2 -3 -4 -6 -5 -5 -7 -12 -39 -46 -52 -73 -83 -95 -106 -120 -135 -153 -176 -200 -216 -233 -241 -256 -259 -278 -304 -334 -370 -414 -465 -545 -614
-3590 -3601 -3597 -3585 -3560 -3528 -3488 -3443 -3403 -3368 -3357 -3361 -3391 -3429 -3472 -3506 -3524 -3531 -3530 -3529 -3530 -3532 -3532 -3529 -3525 -3521 -3520 -3520 -3519 -3520 -3524 -3528 -3527 -3525 -3520 -3517 -3513 -3512 -3513 -3514 -3512 -3507 -3500 -3493 -3490 -3491 -3499 -3510 -3522 -3532 -3534 -3533 -3525 -3516 -3507 -3500 -3493 -3489 -3488 -3491 -3494 -3494 -3494 -3494 -3494 -3495 -3496 -3497 -3497 -3498 -3498 -3496 -3495 -3493 -3491 -3490 -3488 -3487 -3486 -3484 -3483 -3482 -3481 -3481 -3480 -3480 -3479 -3479 -3480 -3480 -3481 -3482 -3484 -3485 -3487 -3490 -3492 -3484 -3475 -3466 -3458 -3453 -3446 -3442 -3443 -3441 -3445 -3448 -3441 -3436 -3431 -3428 -3426 -3422 -3418 -3421 -3414 -3103 -3202 -3334 -3398 -3406 -3411 -3413 -3415 -3415 -3413 -3409 -3401 -3350 -3317 -3390 -3369 -3299 -3237 -3104 -2900 -2627 -2682 -2753 -2822 -2792 -2726 -2763 -2792 -2820 -2857 -2877 -2878 -2953 -3120 -3270 -3385 -3401 -3399 -3396 -3392 -3387 -3383 -3383 -3384 -3385 -3385 -3386 -3387 -3387 -3387 -3385 -3386 -3386 -3386 -3385 -3384 -3383 -3382 -3381 -3379 -3377 -3374 -3373 -3372 -3369 -3362 -3354 -3343 -3337 -3333 -3331 -3329 -3327 -3325 -3323 -3321 -3320 -3318 -3316 -3311 -3309 -3309 -3309 -3308 -3306 -3304 -3302 -3300 -3299 -3299 -3299 -3301 -3302 -3302 -3302 -3303 -3303 -3302 -3301 -3300 -3300 -3300 -3299 -3299 -3299 -3299 -3298 -3298 -3297 -3297 -3296 -3296 -3295 -3295 -3295 -3295 -3295 -3295 -3295 -3295 -3295 -3296 -3296 -3296 -3297 -3297 -3296 -3296 -3295 -3295 -3294 -3293 -3292 -3292 -3293 -3294 -3295 -3297 -3298 -3300 -3301 -3301 -3302 -3303 -3304 -3306 -3308 -3312 -3320 -3323 -3316 -3310 -3307 -3306 -3306 -3306 -3306 -3307 -3307 -3308 -3310 -3313 -3317 -3320 -3322 -3323 -3324 -3325 -3326 -3327 -3328 -3328 -3329 -3330 -3332 -3335 -3337 -3339 -3341 -3343 -3345 -3348 -3353 -3354 -3353 -3353 -3355 -3358 -3361 -3364 -3367 -3369 -3371 -3373 -3374 -3376 -3377 -3378 -3379 -3380 -3381 -3382 -3384 -3386 -3395 -3394 -3390 -3393 -3375 -2975 -2779 -2859 -2862 -3153 -3006 -2310 -1888 -1769 -1704 -1772 -1682 -1337 -1090 -839 -639 -510 -433 -406 -408 -413 -375 -337 -308 -275 -245 -215 -176 -147 -134 -136 -135 -132 -128 -126 -128 -126 -126 -124 -120 -119 -114 -114 -107 -105 -103 -101 -98 -90 -86 -86 -85 -82 -79 -75 -71 -70 -70 -73 -73 -72 -71 -71 -71 -70 -70 -69 -69 -69 -68 -67 -66 -66 -65 -65 -64 -64 -63 -63 -62 -61 -61 -61 -60 -60 -59 -58 -57 -56 -57 -55 -52 -52 -51 -50 -50 -50 -50 -47 -47 -46 -46 -46 -45 -44 -43 -44 -43 -43 -42 -40 -40 -39 -38 -38 -37 -37 -37 -37 -35 -34 -34 -33 -33 -33 -32 -31 -31 -31 -30 -29 -29 -29 -28 -27 -27 -26 -26 -26 -26 -25 -25 -24 -24 -24 -23 -23 -22 -22 -22 -22 -22 -22 -21 -21 -21 -21 -20 -19 -20 -19 -18 -18 -18 -17 -17 -17 -16 -16 -15 -15 -15 -14 -14 -13 -13 -13 -13 -12 -12 -11 -11 -11 -10 -10 -9 -8 -8 -7 -7 -6 -6 -5 -5 -5 -4 -4 -4 -4 -3 -3 -3 -3 -2 -2 -2 -2 -2 -2 -1 -1 -1 -1 -1 -1 -1 -1 -1 -1 -1 0 0 0 0 0 0 0 -1 -1 -1 -2 -2 -2 -2 -1 -2 -2 -2 -1 -1 -1 -2 -4 -5 -5 -6 -4 -8 -27 -45 -64 -69 -73 -83 -93 -103 -118 -132 -148 -168 -194 -211 -231 -246 -253 -262 -272 -294 -323 -356 -397 -438 -493 -573 -628
-3591 -3603 -3603 -3589 -3564 -3529 -3485 -3439 -3392 -3359 -3339 -3344 -3368 -3408 -3453 -3493 -3517 -3528 -3528 -3525 -3529 -3533 -3535 -3534 -3529 -3526 -3525 -3524 -3525 -3524 -3528 -3530 -3527 -3522 -3520 -3518 -3516 -3515 -3517 -3518 -3518 -3514 -3509 -3504 -3501 -3503 -3508 -3517 -3525 -3531 -3532 -3527 -3520 -3509 -3501 -3492 -3482 -3475 -3476 -3482 -3497 -3496 -3496 -3496 -3496 -3496 -3497 -3497 -3498 -3498 -3497 -3497 -3496 -3494 -3493 -3492 -3491 -3489 -3488 -3487 -3485 -3484 -3483 -3482 -3481 -3481 -3480 -3480 -3480 -3480 -3481 -3482 -3483 -3484 -3486 -3487 -3490 -3481 -3473 -3465 -3457 -3447 -3439 -3439 -3447 -3446 -3454 -3445 -3436 -3432 -3429 -3426 -3426 -3417 -3388 -3412 -3377 -2854 -2709 -3070 -3269 -3363 -3309 -3365 -3415 -3408 -3397 -3380 -3394 -3168 -3000 -3151 -3229 -2954 -2864 -2787 -2559 -2499 -2556 -2613 -2679 -2651 -2596 -2651 -2693 -2722 -2795 -2799 -2829 -2908 -3030 -3273 -3400 -3402 -3401 -3398 -3394 -3388 -3383 -3383 -3383 -3384 -3384 -3384 -3386 -3387 -3389 -3391 -3390 -3388 -3387 -3386 -3384 -3383 -3382 -3382 -3380 -3378 -3375 -3374 -3373 -3370 -3363 -3352 -3345 -3338 -3335 -3332 -3330 -3328 -3326 -3324 -3322 -3320 -3318 -3316 -3314 -3312 -3311 -3310 -3309 -3308 -3306 -3305 -3304 -3303 -3302 -3301 -3303 -3304 -3305 -3305 -3305 -3305 -3305 -3304 -3304 -3304 -3304 -3303 -3303 -3303 -3303 -3303 -3302 -3301 -3299 -3298 -3298 -3298 -3298 -3298 -3298 -3298 -3298 -3298 -3298 -3298 -3298 -3298 -3299 -3300 -3301 -3299 -3298 -3297 -3296 -3295 -3293 -3292 -3292 -3293 -3295 -3297 -3298 -3299 -3300 -3301 -3301 -3302 -3304 -3306 -3308 -3310 -3313 -3319 -3324 -3318 -3312 -3309 -3308 -3308 -3308 -3308 -3307 -3306 -3306 -3307 -3309 -3313 -3316 -3319 -3321 -3322 -3323 -3324 -3326 -3327 -3328 -3329 -3331 -3333 -3336 -3337 -3338 -3340 -3341 -3343 -3347 -3353 -3355 -3355 -3355 -3357 -3360 -3362 -3364 -3366 -3368 -3369 -3371 -3374 -3377 -3379 -3380 -3381 -3381 -3382 -3383 -3384 -3385 -3390 -3389 -3387 -3379 -3233 -2646 -2848 -3139 -3296 -3215 -2591 -2038 -1770 -1952 -2215 -2105 -1759 -1399 -1147 -954 -802 -611 -473 -411 -413 -403 -403 -368 -330 -298 -270 -237 -208 -175 -143 -137 -135 -132 -129 -126 -128 -125 -125 -123 -119 -118 -114 -112 -107 -104 -102 -100 -96 -87 -85 -87 -85 -81 -78 -75 -70 -69 -71 -72 -72 -72 -71 -71 -71 -70 -70 -69 -69 -69 -67 -67 -66 -67 -66 -65 -65 -64 -63 -63 -63 -62 -61 -61 -60 -60 -59 -58 -57 -56 -57 -55 -52 -52 -51 -50 -50 -49 -49 -47 -48 -46 -46 -46 -45 -44 -43 -42 -43 -41 -41 -40 -40 -38 -38 -37 -37 -37 -36 -35 -33 -33 -33 -33 -33 -33 -31 -31 -31 -30 -30 -29 -28 -28 -28 -27 -26 -26 -26 -26 -26 -26 -26 -25 -24 -24 -22 -22 -22 -22 -22 -22 -22 -22 -21 -21 -20 -20 -20 -20 -19 -19 -19 -18 -18 -18 -17 -16 -16 -16 -15 -15 -15 -14 -14 -14 -13 -13 -12 -12 -12 -11 -11 -11 -10 -9 -9 -8 -7 -7 -6 -6 -5 -5 -5 -4 -4 -4 -4 -3 -3 -3 -3 -3 -2 -2 -2 -2 -2 -2 -2 -1 -1 -1 -1 -1 -1 -1 -1 -1 -1 -1 0 0 0 0 0 0 0 -1 -2 -2 -2 -2 -2 -1 -2 -2 -1 -1 -1 -2 -4 -6 -5 -5 -6 -9 -34 -57 -68 -72 -76 -82 -90 -102 -114 -128 -144 -160 -183 -207 -226 -242 -251 -260 -269 -282 -307 -339 -375 -421 -466 -519 -587 -636
-3587 -3601 -3603 -3590 -3566 -3530 -3487 -3440 -3394 -3359 -3339 -3340 -3361 -3398 -3442 -3482 -3510 -3524 -3528 -3528 -3531 -3535 -3536 -3534 -3531 -3528 -3532 -3536 -3539 -3537 -3534 -3530 -3527 -3524 -3521 -3518 -3518 -3520 -3524 -3526 -3526 -3525 -3521 -3517 -3514 -3513 -3516 -3520 -3525 -3527 -3524 -3519 -3513 -3505 -3494 -3481 -3469 -3462 -3466 -3480 -3500 -3499 -3498 -3498 -3498 -3498 -3498 -3498 -3498 -3498 -3498 -3497 -3497 -3496 -3495 -3494 -3493 -3491 -3490 -3488 -3487 -3486 -3484 -3483 -3482 -3481 -3481 -3480 -3480 -3480 -3480 -3481 -3482 -3483 -3484 -3483 -3478 -3476 -3471 -3463 -3454 -3445 -3432 -3433 -3442 -3445 -3444 -3433 -3426 -3427 -3428 -3428 -3432 -3410 -3137 -3116 -3177 -2724 -2571 -2739 -2857 -3067 -3077 -3212 -3409 -3388 -3165 -3111 -3249 -2956 -2740 -2843 -2857 -2770 -2743 -2794 -2560 -2472 -2441 -2477 -2552 -2552 -2533 -2614 -2650 -2645 -2673 -2720 -2787 -2896 -3208 -3378 -3387 -3396 -3401 -3400 -3395 -3389 -3384 -3383 -3383 -3383 -3383 -3383 -3385 -3387 -3389 -3392 -3391 -3389 -3388 -3387 -3385 -3383 -3383 -3383 -3382 -3381 -3381 -3377 -3374 -3369 -3357 -3350 -3342 -3338 -3337 -3334 -3330 -3328 -3327 -3326 -3324 -3320 -3319 -3318 -3317 -3315 -3312 -3310 -3310 -3309 -3309 -3309 -3308 -3308 -3306 -3306 -3306 -3308 -3308 -3308 -3308 -3308 -3308 -3308 -3308 -3308 -3308 -3308 -3307 -3308 -3307 -3307 -3307 -3305 -3301 -3300 -3300 -3300 -3300 -3300 -3300 -3300 -3300 -3300 -3300 -3300 -3300 -3300 -3302 -3305 -3305 -3302 -3300 -3300 -3299 -3297 -3294 -3293 -3293 -3294 -3296 -3299 -3300 -3300 -3301 -3301 -3301 -3302 -3305 -3309 -3310 -3311 -3314 -3318 -3323 -3318 -3313 -3310 -3310 -3310 -3309 -3309 -3308 -3306 -3306 -3306 -3307 -3311 -3313 -3317 -3320 -3320 -3321 -3322 -3326 -3328 -3328 -3329 -3330 -3334 -3338 -3338 -3338 -3338 -3339 -3340 -3344 -3352 -3356 -3356 -3356 -3357 -3361 -3364 -3365 -3366 -3366 -3367 -3369 -3374 -3379 -3381 -3382 -3382 -3382 -3383 -3383 -3384 -3384 -3384 -3385 -3381 -3295 -3231 -3272 -3357 -3362 -3261 -2922 -2713 -1990 -1934 -2246 -2441 -2101 -1829 -1484 -1284 -1122 -988 -754 -531 -424 -397 -411 -395 -395 -359 -319 -290 -258 -229 -206 -168 -140 -135 -132 -130 -126 -127 -125 -124 -121 -118 -118 -114 -111 -105 -102 -100 -94 -90 -86 -85 -83 -82 -80 -77 -73 -67 -66 -69 -70 -71 -71 -70 -70 -70 -70 -70 -69 -69 -68 -67 -67 -67 -66 -65 -65 -65 -65 -64 -63 -63 -62 -61 -61 -60 -60 -59 -59 -57 -57 -57 -56 -52 -52 -51 -50 -50 -49 -49 -47 -47 -46 -45 -46 -45 -44 -42 -43 -42 -41 -40 -39 -39 -38 -37 -37 -37 -35 -35 -34 -34 -33 -33 -32 -32 -32 -31 -31 -31 -30 -29 -29 -27 -27 -27 -27 -26 -26 -26 -26 -26 -26 -26 -25 -24 -24 -23 -23 -22 -22 -22 -22 -22 -22 -22 -21 -20 -20 -20 -20 -19 -19 -19 -18 -18 -17 -17 -17 -16 -16 -15 -15 -15 -14 -14 -13 -13 -13 -12 -12 -12 -11 -11 -11 -10 -9 -9 -8 -7 -7 -6 -6 -5 -5 -5 -4 -4 -4 -4 -3 -3 -3 -3 -3 -2 -2 -2 -2 -2 -2 -2 -2 -2 -1 -1 -1 -1 -1 -1 -1 -1 -1 -1 0 0 0 -1 0 -1 -1 -2 -3 -2 -3 -2 -1 -2 -2 -1 -1 -3 -4 -5 -5 -5 -6 -17 -42 -61 -73 -75 -78 -83 -90 -101 -113 -122 -134 -152 -171 -199 -221 -238 -250 -259 -263 -278 -298 -323 -359 -403 -448 -494 -543 -606 -645
-3586 -3601 -3604 -3592 -3569 -3536 -3495 -3450 -3408 -3372 -3353 -3350 -3369 -3401 -3441 -3479 -3506 -3522 -3527 -3529 -3531 -3535 -3535 -3535 -3532 -3530 -3539 -3550 -3553 -3552 -3542 -3531 -3530 -3528 -3523 -3518 -3520 -3525 -3529 -3534 -3535 -3535 -3532 -3529 -3524 -3521 -3521 -3522 -3523 -3523 -3519 -3512 -3509 -3501 -3485 -3469 -3455 -3450 -3457 -3474 -3503 -3501 -3500 -3499 -3499 -3499 -3499 -3499 -3499 -3499 -3498 -3498 -3498 -3497 -3497 -3496 -3495 -3494 -3492 -3490 -3489 -3487 -3486 -3484 -3483 -3482 -3481 -3480 -3480 -3479 -3480 -3480 -3482 -3483 -3483 -3482 -3478 -3475 -3469 -3456 -3446 -3443 -3424 -3428 -3436 -3436 -3434 -3412 -3407 -3421 -3424 -3412 -3414 -3399 -2995 -2748 -2925 -2702 -2485 -2545 -2589 -2751 -3010 -3299 -3365 -3098 -2721 -2684 -2788 -2723 -2635 -2765 -2735 -2611 -2600 -2640 -2488 -2416 -2394 -2416 -2481 -2486 -2479 -2550 -2593 -2558 -2586 -2658 -2755 -2968 -3287 -3377 -3377 -3371 -3385 -3389 -3397 -3392 -3384 -3383 -3383 -3383 -3383 -3383 -3384 -3386 -3389 -3392 -3392 -3391 -3390 -3388 -3386 -3384 -3385 -3384 -3384 -3383 -3383 -3378 -3373 -3368 -3355 -3347 -3340 -3339 -3338 -3336 -3331 -3330 -3330 -3329 -3326 -3322 -3321 -3320 -3320 -3319 -3315 -3313 -3313 -3313 -3313 -3313 -3313 -3312 -3310 -3309 -3310 -3311 -3312 -3312 -3312 -3312 -3312 -3312 -3312 -3312 -3312 -3312 -3312 -3312 -3312 -3311 -3311 -3309 -3305 -3303 -3303 -3302 -3302 -3302 -3303 -3303 -3303 -3303 -3303 -3303 -3303 -3303 -3305 -3308 -3308 -3304 -3303 -3303 -3302 -3299 -3297 -3296 -3296 -3297 -3299 -3302 -3303 -3303 -3303 -3304 -3304 -3305 -3308 -3311 -3312 -3314 -3316 -3320 -3326 -3322 -3316 -3313 -3313 -3313 -3312 -3312 -3311 -3308 -3307 -3307 -3309 -3312 -3314 -3318 -3321 -3321 -3322 -3323 -3327 -3329 -3330 -3331 -3332 -3336 -3339 -3340 -3340 -3341 -3341 -3342 -3346 -3353 -3356 -3356 -3356 -3357 -3362 -3364 -3364 -3364 -3365 -3365 -3366 -3372 -3380 -3382 -3382 -3383 -3383 -3383 -3383 -3383 -3383 -3384 -3384 -3384 -3373 -3382 -3393 -3396 -3328 -2758 -2472 -2405 -2108 -2541 -2828 -2703 -2213 -1912 -1526 -1329 -1173 -987 -776 -564 -431 -401 -405 -403 -408 -387 -347 -311 -283 -255 -229 -198 -152 -136 -134 -131 -127 -127 -126 -124 -121 -117 -116 -112 -109 -103 -98 -94 -87 -84 -86 -84 -81 -81 -81 -78 -73 -69 -67 -68 -69 -70 -70 -69 -69 -70 -70 -70 -69 -69 -68 -67 -67 -66 -66 -65 -65 -65 -65 -64 -63 -63 -61 -61 -60 -60 -60 -59 -58 -57 -57 -56 -56 -52 -52 -51 -50 -50 -49 -49 -47 -46 -46 -45 -45 -44 -42 -42 -42 -41 -41 -40 -38 -38 -37 -37 -37 -36 -35 -34 -35 -33 -33 -33 -32 -32 -32 -31 -31 -30 -29 -29 -28 -28 -27 -27 -26 -27 -27 -26 -26 -27 -26 -26 -25 -24 -24 -24 -23 -23 -22 -22 -22 -22 -22 -21 -21 -20 -20 -20 -20 -20 -19 -18 -18 -17 -17 -17 -17 -16 -16 -15 -15 -15 -14 -14 -13 -13 -13 -12 -12 -12 -11 -11 -10 -10 -9 -8 -7 -7 -6 -6 -5 -5 -5 -4 -4 -4 -4 -3 -3 -3 -3 -3 -3 -2 -2 -2 -2 -2 -2 -2 -2 -2 -2 -2 -1 -1 -1 -1 -1 -1 -1 -1 -1 -1 -1 -1 -2 -1 -1 -1 -2 -2 -2 -2 -1 -1 0 -2 -4 -5 -6 -6 -5 -11 -23 -51 -70 -77 -81 -83 -88 -95 -105 -114 -123 -136 -152 -169 -191 -221 -235 -250 -257 -262 -275 -291 -313 -343 -384 -433 -480 -521 -570 -619 -655
-3592 -3609 -3611 -3600 -3578 -3547 -3510 -3470 -3432 -3401 -3382 -3379 -3393 -3418 -3451 -3483 -3506 -3521 -3527 -3528 -3528 -3530 -3533 -3536 -3537 -3539 -3547 -3555 -3560 -3559 -3551 -3542 -3536 -3532 -3527 -3523 -3523 -3526 -3532 -3537 -3540 -3540 -3538 -3535 -3532 -3528 -3524 -3523 -3523 -3523 -3521 -3516 -3508 -3495 -3476 -3458 -3446 -3444 -3456 -3480 -3508 -3506 -3505 -3503 -3503 -3502 -3501 -3500 -3500 -3499 -3499 -3499 -3499 -3499 -3499 -3499 -3498 -3496 -3494 -3492 -3490 -3488 -3487 -3485 -3484 -3483 -3481 -3480 -3479 -3478 -3478 -3479 -3482 -3482 -3483 -3483 -3483 -3475 -3465 -3425 -3377 -3226 -3171 -3251 -3350 -3377 -3391 -3375 -3359 -3423 -3414 -3274 -3379 -3405 -3083 -2696 -2585 -2621 -2467 -2420 -2447 -2573 -2879 -3391 -3117 -2775 -2559 -2501 -2570 -2564 -2581 -2595 -2539 -2445 -2437 -2484 -2394 -2360 -2345 -2361 -2398 -2415 -2414 -2488 -2503 -2492 -2511 -2595 -2737 -3160 -3296 -3301 -3304 -3328 -3350 -3231 -3353 -3395 -3379 -3374 -3382 -3383 -3380 -3382 -3383 -3385 -3388 -3392 -3392 -3392 -3391 -3391 -3390 -3389 -3388 -3386 -3385 -3384 -3383 -3378 -3371 -3369 -3363 -3345 -3344 -3343 -3341 -3339 -3336 -3335 -3333 -3332 -3329 -3326 -3325 -3324 -3323 -3322 -3320 -3319 -3319 -3318 -3318 -3318 -3317 -3316 -3314 -3313 -3314 -3315 -3315 -3315 -3315 -3315 -3315 -3316 -3316 -3316 -3316 -3316 -3316 -3316 -3316 -3315 -3314 -3312 -3310 -3308 -3307 -3306 -3306 -3306 -3306 -3306 -3306 -3306 -3306 -3306 -3306 -3307 -3308 -3309 -3309 -3308 -3307 -3306 -3305 -3304 -3302 -3301 -3302 -3302 -3304 -3305 -3306 -3307 -3307 -3308 -3309 -3310 -3312 -3314 -3316 -3318 -3321 -3326 -3332 -3329 -3324 -3320 -3318 -3317 -3316 -3316 -3314 -3313 -3312 -3313 -3315 -3317 -3319 -3321 -3323 -3325 -3326 -3327 -3330 -3332 -3333 -3334 -3336 -3338 -3341 -3342 -3343 -3344 -3345 -3348 -3351 -3355 -3357 -3357 -3357 -3358 -3360 -3361 -3362 -3362 -3363 -3364 -3366 -3370 -3375 -3377 -3379 -3380 -3381 -3382 -3382 -3382 -3383 -3384 -3385 -3386 -3387 -3389 -3393 -3388 -2987 -2785 -2603 -2868 -3129 -3338 -3109 -2412 -1975 -1693 -1378 -1201 -1099 -940 -707 -509 -459 -425 -421 -392 -396 -399 -374 -334 -303 -276 -245 -218 -187 -152 -135 -133 -128 -126 -126 -123 -120 -116 -114 -110 -107 -101 -94 -85 -83 -84 -86 -82 -80 -81 -80 -78 -73 -67 -66 -67 -67 -68 -68 -68 -69 -69 -69 -69 -69 -69 -67 -67 -67 -67 -66 -65 -65 -65 -65 -64 -63 -63 -62 -61 -60 -60 -60 -59 -58 -57 -56 -56 -56 -52 -51 -51 -50 -50 -49 -48 -47 -47 -46 -45 -45 -43 -43 -43 -42 -40 -41 -40 -38 -38 -37 -36 -35 -35 -34 -34 -33 -33 -33 -33 -32 -31 -31 -30 -30 -29 -29 -28 -28 -28 -28 -27 -27 -26 -26 -26 -26 -26 -25 -24 -24 -24 -24 -24 -24 -24 -23 -22 -22 -22 -22 -21 -20 -21 -21 -20 -19 -19 -18 -16 -17 -17 -17 -17 -16 -16 -15 -15 -15 -15 -14 -14 -14 -13 -13 -13 -12 -11 -11 -10 -10 -9 -8 -8 -7 -6 -6 -5 -5 -5 -4 -4 -4 -4 -4 -3 -3 -3 -3 -3 -2 -2 -2 -2 -2 -2 -2 -2 -2 -2 -2 -2 -2 -2 -2 -1 -1 -1 -1 -1 -1 -2 -2 -2 -1 -1 -2 -2 -2 -2 -1 -1 -2 -1 -2 -4 -5 -4 -6 -8 -22 -42 -59 -73 -82 -85 -88 -96 -101 -108 -115 -122 -134 -151 -166 -186 -213 -234 -249 -252 -262 -274 -286 -307 -332 -370 -417 -466 -507 -546 -588 -627 -659
-3606 -3622 -3624 -3612 -3591 -3562 -3529 -3495 -3462 -3436 -3420 -3416 -3427 -3446 -3472 -3496 -3513 -3523 -3528 -3528 -3527 -3525 -3533 -3540 -3543 -3547 -3551 -3557 -3561 -3562 -3556 -3550 -3543 -3538 -3532 -3528 -3526 -3527 -3534 -3541 -3544 -3543 -3542 -3539 -3536 -3533 -3528 -3524 -3526 -3527 -3526 -3521 -3506 -3489 -3468 -3451 -3444 -3446 -3461 -3482 -3513 -3511 -3510 -3508 -3507 -3506 -3505 -3503 -3501 -3500 -3499 -3500 -3500 -3500 -3500 -3500 -3500 -3498 -3495 -3493 -3491 -3490 -3488 -3486 -3485 -3483 -3482 -3480 -3479 -3477 -3476 -3476 -3483 -3481 -3479 -3479 -3481 -3448 -3421 -3148 -2848 -2779 -2725 -2746 -2785 -2900 -3070 -3034 -3009 -3360 -3402 -3122 -3200 -3419 -3292 -2881 -2562 -2473 -2408 -2345 -2350 -2505 -2825 -3362 -3020 -2614 -2455 -2405 -2454 -2465 -2484 -2472 -2388 -2327 -2323 -2323 -2291 -2286 -2305 -2313 -2321 -2344 -2351 -2395 -2424 -2426 -2454 -2553 -2804 -3243 -3114 -2929 -2925 -3076 -3324 -3320 -3366 -3344 -3226 -3274 -3381 -3383 -3366 -3371 -3378 -3383 -3386 -3391 -3393 -3392 -3392 -3393 -3393 -3392 -3391 -3389 -3387 -3385 -3383 -3378 -3371 -3367 -3353 -3350 -3349 -3347 -3345 -3343 -3341 -3339 -3337 -3335 -3333 -3331 -3329 -3328 -3327 -3327 -3326 -3325 -3325 -3324 -3324 -3323 -3322 -3320 -3319 -3319 -3318 -3319 -3319 -3319 -3319 -3319 -3319 -3319 -3320 -3320 -3320 -3320 -3320 -3320 -3320 -3319 -3318 -3316 -3314 -3312 -3310 -3309 -3309 -3309 -3310 -3310 -3310 -3310 -3310 -3309 -3309 -3310 -3311 -3312 -3312 -3311 -3311 -3310 -3309 -3308 -3308 -3307 -3307 -3308 -3309 -3309 -3310 -3311 -3311 -3313 -3314 -3315 -3315 -3317 -3318 -3321 -3325 -3330 -3334 -3333 -3329 -3325 -3322 -3321 -3320 -3320 -3319 -3319 -3318 -3319 -3321 -3323 -3324 -3326 -3327 -3329 -3330 -3331 -3333 -3335 -3336 -3338 -3339 -3341 -3343 -3345 -3347 -3348 -3349 -3352 -3355 -3358 -3359 -3358 -3357 -3358 -3359 -3359 -3360 -3360 -3361 -3362 -3364 -3367 -3370 -3373 -3376 -3378 -3380 -3380 -3381 -3382 -3383 -3384 -3385 -3387 -3388 -3389 -3389 -3378 -3384 -3385 -3346 -3347 -3366 -3294 -2540 -2159 -1797 -1689 -1530 -1326 -1105 -827 -639 -529 -485 -446 -418 -388 -389 -404 -396 -363 -327 -300 -270 -238 -213 -187 -152 -136 -130 -125 -125 -124 -120 -115 -111 -106 -104 -97 -92 -84 -83 -85 -84 -81 -81 -81 -79 -76 -69 -65 -65 -67 -67 -68 -68 -68 -68 -68 -68 -68 -68 -67 -67 -67 -67 -67 -66 -65 -65 -65 -65 -64 -63 -63 -62 -61 -61 -60 -60 -60 -59 -57 -56 -56 -55 -51 -51 -51 -50 -50 -49 -49 -47 -47 -46 -45 -44 -43 -43 -41 -41 -39 -40 -38 -38 -36 -36 -35 -35 -35 -33 -33 -33 -33 -32 -32 -31 -31 -31 -30 -30 -29 -29 -28 -29 -27 -27 -27 -27 -26 -27 -26 -26 -26 -25 -24 -24 -24 -23 -23 -24 -24 -22 -22 -22 -21 -21 -20 -20 -20 -20 -20 -19 -18 -18 -16 -16 -16 -16 -16 -16 -16 -15 -15 -15 -14 -14 -14 -14 -13 -13 -12 -12 -12 -11 -10 -10 -9 -8 -7 -7 -6 -5 -5 -4 -4 -4 -4 -4 -4 -4 -3 -3 -3 -3 -3 -2 -2 -2 -2 -2 -2 -2 -2 -2 -2 -2 -2 -2 -2 -2 -2 -2 -2 -1 -1 -2 -2 -2 -2 -2 -2 -3 -3 -2 -2 0 -1 -1 -3 -5 -5 -5 -6 -11 -30 -48 -66 -75 -84 -86 -92 -104 -109 -114 -119 -124 -134 -151 -166 -182 -207 -233 -246 -253 -260 -267 -283 -301 -326 -358 -404 -456 -501 -533 -569 -603 -635 -666
-3622 -3636 -3637 -3626 -3605 -3577 -3547 -3517 -3491 -3471 -3460 -3459 -3468 -3483 -3501 -3516 -3525 -3530 -3532 -3532 -3532 -3533 -3538 -3544 -3547 -3550 -3553 -3555 -3557 -3558 -3556 -3551 -3546 -3540 -3535 -3532 -3530 -3532 -3539 -3546 -3550 -3549 -3546 -3542 -3539 -3536 -3532 -3531 -3532 -3533 -3528 -3517 -3500 -3481 -3466 -3456 -3454 -3460 -3475 -3496 -3518 -3516 -3515 -3513 -3512 -3510 -3508 -3506 -3503 -3500 -3500 -3500 -3500 -3500 -3500 -3500 -3500 -3498 -3496 -3494 -3493 -3491 -3489 -3487 -3485 -3484 -3482 -3480 -3478 -3477 -3475 -3479 -3483 -3479 -3475 -3465 -3465 -3246 -2872 -2608 -2505 -2505 -2480 -2471 -2426 -2434 -2652 -2732 -2808 -3267 -3406 -3134 -3123 -3388 -3366 -3070 -2585 -2409 -2308 -2280 -2301 -2469 -2603 -2861 -2739 -2474 -2358 -2339 -2381 -2396 -2407 -2394 -2313 -2262 -2240 -2227 -2213 -2234 -2260 -2258 -2220 -2257 -2297 -2330 -2360 -2359 -2431 -2654 -2991 -3092 -2737 -2580 -2598 -2763 -3114 -3352 -3402 -3144 -2790 -3047 -3353 -3376 -3317 -3200 -3343 -3369 -3382 -3388 -3393 -3393 -3393 -3394 -3397 -3398 -3394 -3390 -3387 -3385 -3383 -3379 -3374 -3370 -3364 -3357 -3353 -3352 -3350 -3348 -3346 -3343 -3341 -3339 -3337 -3334 -3333 -3332 -3331 -3331 -3331 -3331 -3331 -3330 -3330 -3329 -3326 -3324 -3324 -3323 -3323 -3323 -3323 -3323 -3323 -3323 -3323 -3323 -3324 -3324 -3324 -3324 -3324 -3324 -3324 -3324 -3323 -3321 -3318 -3316 -3314 -3312 -3311 -3312 -3313 -3314 -3314 -3314 -3314 -3313 -3311 -3312 -3314 -3315 -3315 -3315 -3314 -3314 -3314 -3313 -3313 -3313 -3313 -3313 -3314 -3314 -3314 -3315 -3315 -3317 -3318 -3319 -3319 -3319 -3321 -3324 -3327 -3330 -3336 -3337 -3333 -3327 -3326 -3325 -3324 -3324 -3324 -3324 -3324 -3325 -3328 -3329 -3329 -3330 -3332 -3333 -3334 -3335 -3336 -3338 -3340 -3342 -3343 -3344 -3345 -3348 -3350 -3351 -3353 -3354 -3357 -3359 -3361 -3358 -3358 -3358 -3359 -3359 -3359 -3360 -3359 -3360 -3360 -3363 -3366 -3370 -3373 -3376 -3379 -3379 -3380 -3381 -3382 -3383 -3385 -3386 -3386 -3387 -3387 -3388 -3393 -3403 -3399 -3324 -2921 -2440 -2414 -2077 -2038 -2081 -1686 -1463 -1168 -762 -621 -553 -503 -476 -432 -391 -384 -398 -397 -389 -358 -325 -293 -266 -236 -210 -181 -148 -134 -126 -124 -123 -120 -114 -108 -101 -99 -92 -84 -83 -84 -84 -82 -81 -80 -80 -79 -74 -66 -66 -66 -66 -67 -67 -68 -68 -68 -68 -68 -68 -68 -68 -67 -67 -67 -67 -65 -65 -65 -65 -65 -64 -63 -63 -62 -61 -61 -61 -60 -59 -59 -57 -56 -55 -54 -52 -51 -51 -50 -50 -48 -49 -46 -46 -45 -44 -44 -43 -41 -40 -40 -39 -39 -38 -36 -35 -36 -35 -35 -34 -33 -33 -33 -33 -33 -32 -31 -31 -31 -30 -29 -29 -29 -28 -28 -27 -27 -27 -27 -26 -26 -26 -26 -26 -25 -24 -24 -24 -24 -22 -23 -22 -22 -21 -21 -21 -21 -21 -21 -20 -20 -19 -19 -18 -17 -17 -16 -16 -16 -16 -16 -15 -15 -15 -15 -15 -15 -14 -14 -13 -13 -12 -12 -12 -11 -10 -10 -9 -8 -7 -6 -5 -5 -4 -4 -4 -4 -3 -4 -4 -4 -3 -3 -2 -2 -2 -2 -2 -2 -2 -2 -2 -2 -2 -2 -2 -2 -2 -2 -2 -2 -2 -2 -2 -2 -2 -2 -2 -2 -2 -3 -3 -3 -3 -2 -2 -1 -4 -5 -5 -4 -3 -6 -17 -40 -58 -71 -78 -88 -91 -97 -110 -118 -124 -126 -133 -143 -155 -166 -179 -202 -229 -247 -253 -259 -265 -278 -296 -319 -347 -390 -448 -495 -528 -556 -585 -612 -641 -673
-3635 -3645 -3645 -3637 -3615 -3589 -3560 -3535 -3514 -3501 -3495 -3498 -3506 -3520 -3530 -3540 -3541 -3539 -3537 -3537 -3536 -3539 -3542 -3547 -3550 -3551 -3552 -3552 -3553 -3553 -3553 -3551 -3547 -3541 -3539 -3537 -3535 -3536 -3543 -3551 -3553 -3553 -3547 -3542 -3540 -3539 -3538 -3537 -3539 -3539 -3529 -3513 -3495 -3477 -3470 -3468 -3471 -3480 -3492 -3507 -3523 -3521 -3520 -3518 -3516 -3515 -3512 -3510 -3507 -3504 -3500 -3500 -3500 -3500 -3500 -3500 -3500 -3499 -3497 -3496 -3494 -3492 -3490 -3488 -3486 -3484 -3482 -3480 -3478 -3476 -3476 -3482 -3484 -3468 -3458 -3413 -3159 -2770 -2514 -2373 -2347 -2353 -2337 -2282 -2289 -2311 -2400 -2509 -2685 -3258 -3387 -3170 -3116 -3191 -3374 -3146 -2685 -2423 -2325 -2288 -2300 -2396 -2535 -2656 -2567 -2395 -2317 -2319 -2331 -2338 -2347 -2332 -2253 -2207 -2155 -2102 -2156 -2188 -2210 -2210 -2170 -2186 -2242 -2303 -2338 -2377 -2499 -2741 -2877 -2622 -2476 -2412 -2463 -2639 -3068 -3324 -3300 -2929 -2746 -2919 -3163 -3332 -3179 -2853 -2984 -3290 -3372 -3384 -3393 -3393 -3393 -3394 -3398 -3400 -3395 -3391 -3388 -3385 -3383 -3381 -3377 -3375 -3371 -3362 -3359 -3358 -3357 -3355 -3351 -3346 -3345 -3344 -3342 -3338 -3336 -3336 -3336 -3336 -3336 -3337 -3337 -3336 -3336 -3335 -3331 -3328 -3328 -3327 -3327 -3327 -3327 -3327 -3327 -3327 -3328 -3328 -3328 -3328 -3328 -3328 -3329 -3329 -3329 -3329 -3328 -3327 -3323 -3320 -3319 -3314 -3315 -3317 -3318 -3319 -3319 -3319 -3319 -3318 -3316 -3317 -3318 -3319 -3318 -3319 -3319 -3319 -3319 -3318 -3318 -3318 -3319 -3319 -3319 -3319 -3319 -3319 -3320 -3322 -3323 -3325 -3323 -3322 -3324 -3329 -3330 -3333 -3337 -3341 -3336 -3333 -3331 -3330 -3330 -3330 -3330 -3330 -3330 -3331 -3335 -3336 -3335 -3334 -3337 -3338 -3338 -3338 -3339 -3341 -3345 -3346 -3346 -3346 -3347 -3351 -3354 -3356 -3356 -3357 -3360 -3362 -3363 -3360 -3359 -3358 -3359 -3359 -3359 -3360 -3360 -3359 -3359 -3360 -3364 -3367 -3371 -3375 -3378 -3379 -3379 -3380 -3381 -3383 -3384 -3384 -3384 -3384 -3384 -3384 -3388 -3394 -3369 -2907 -2466 -2185 -2241 -2524 -2365 -2099 -1802 -1569 -1283 -913 -684 -586 -520 -504 -479 -427 -381 -396 -392 -400 -383 -350 -314 -290 -253 -229 -206 -186 -163 -139 -127 -122 -119 -112 -105 -96 -94 -86 -84 -85 -82 -80 -81 -81 -80 -80 -79 -74 -66 -67 -67 -67 -67 -66 -67 -67 -67 -67 -67 -68 -68 -68 -68 -67 -67 -66 -65 -65 -65 -65 -65 -64 -63 -63 -62 -61 -61 -61 -60 -59 -58 -57 -56 -55 -54 -52 -51 -51 -50 -50 -48 -49 -45 -46 -44 -44 -43 -41 -40 -40 -39 -38 -38 -37 -36 -35 -35 -35 -34 -34 -33 -33 -33 -32 -32 -32 -31 -31 -31 -30 -29 -29 -29 -29 -27 -27 -27 -27 -27 -26 -24 -24 -24 -25 -24 -24 -24 -24 -23 -22 -23 -22 -22 -21 -20 -21 -21 -21 -21 -21 -20 -19 -18 -18 -17 -17 -17 -17 -16 -16 -16 -16 -15 -15 -15 -14 -14 -13 -13 -13 -12 -12 -12 -11 -11 -10 -10 -9 -8 -6 -5 -4 -4 -3 -3 -4 -3 -2 -3 -4 -4 -3 -2 -2 -2 -2 -2 -2 -2 -2 -2 -2 -2 -2 -2 -2 -2 -2 -2 -2 -2 -2 -2 -2 -2 -1 -2 -2 -2 -2 -2 -2 -3 -2 -1 -3 -5 -6 -7 -6 -5 -10 -33 -50 -65 -73 -83 -92 -95 -102 -113 -123 -132 -140 -146 -151 -159 -168 -180 -201 -230 -249 -253 -256 -263 -275 -290 -311 -338 -377 -435 -485 -523 -553 -576 -600 -625 -653 -687
-3636 -3643 -3643 -3634 -3616 -3592 -3567 -3545 -3531 -3524 -3523 -3528 -3536 -3546 -3555 -3559 -3556 -3549 -3541 -3535 -3532 -3534 -3539 -3546 -3550 -3552 -3552 -3552 -3552 -3553 -3553 -3552 -3550 -3547 -3544 -3542 -3540 -3540 -3543 -3548 -3550 -3549 -3544 -3540 -3541 -3544 -3545 -3544 -3542 -3538 -3529 -3515 -3499 -3486 -3482 -3485 -3491 -3499 -3508 -3519 -3528 -3527 -3525 -3523 -3521 -3519 -3517 -3514 -3512 -3508 -3505 -3503 -3501 -3500 -3500 -3500 -3500 -3500 -3498 -3497 -3495 -3493 -3491 -3489 -3487 -3485 -3483 -3480 -3478 -3476 -3477 -3487 -3489 -3406 -3180 -3096 -2789 -2561 -2368 -2320 -2262 -2237 -2228 -2209 -2200 -2242 -2336 -2512 -2793 -3039 -3025 -3167 -3010 -3033 -3235 -3155 -2854 -2532 -2378 -2305 -2302 -2376 -2482 -2524 -2455 -2306 -2256 -2278 -2279 -2269 -2298 -2284 -2183 -2134 -2097 -2067 -2090 -2126 -2154 -2155 -2114 -2143 -2198 -2282 -2345 -2436 -2641 -2755 -2565 -2374 -2353 -2390 -2441 -2676 -2828 -2869 -2807 -2653 -2578 -2625 -2752 -3145 -2731 -2578 -2813 -3210 -3294 -3358 -3392 -3391 -3390 -3392 -3396 -3399 -3394 -3390 -3388 -3385 -3383 -3382 -3380 -3380 -3378 -3372 -3368 -3367 -3366 -3363 -3359 -3354 -3352 -3351 -3348 -3344 -3342 -3341 -3341 -3341 -3341 -3341 -3341 -3340 -3340 -3339 -3336 -3334 -3333 -3332 -3332 -3332 -3332 -3332 -3332 -3333 -3333 -3333 -3333 -3334 -3334 -3334 -3334 -3334 -3334 -3334 -3334 -3332 -3330 -3327 -3326 -3323 -3322 -3324 -3325 -3326 -3326 -3326 -3326 -3325 -3323 -3323 -3325 -3325 -3325 -3326 -3326 -3326 -3326 -3326 -3325 -3326 -3327 -3327 -3327 -3327 -3326 -3326 -3327 -3328 -3330 -3330 -3330 -3329 -3331 -3334 -3337 -3341 -3348 -3354 -3350 -3344 -3341 -3340 -3339 -3339 -3339 -3338 -3338 -3339 -3341 -3342 -3341 -3342 -3343 -3343 -3344 -3344 -3345 -3346 -3349 -3350 -3351 -3351 -3352 -3356 -3359 -3360 -3361 -3363 -3366 -3369 -3368 -3364 -3363 -3362 -3362 -3362 -3361 -3361 -3361 -3361 -3362 -3363 -3366 -3369 -3372 -3375 -3378 -3379 -3379 -3380 -3381 -3383 -3384 -3385 -3385 -3385 -3385 -3385 -3383 -3376 -3362 -3098 -2483 -2313 -2454 -2649 -2413 -2099 -1807 -1648 -1441 -1218 -960 -750 -640 -565 -538 -492 -441 -394 -386 -387 -378 -371 -346 -314 -285 -257 -232 -206 -193 -181 -141 -120 -117 -111 -103 -93 -90 -85 -84 -82 -80 -79 -81 -80 -80 -80 -81 -73 -66 -66 -67 -67 -67 -66 -66 -65 -66 -67 -67 -67 -67 -67 -68 -67 -67 -66 -65 -65 -65 -65 -65 -64 -63 -63 -63 -62 -61 -60 -60 -59 -58 -57 -55 -55 -53 -52 -51 -50 -50 -49 -47 -46 -45 -46 -44 -42 -42 -40 -39 -39 -38 -38 -37 -36 -35 -35 -34 -33 -33 -33 -33 -33 -33 -32 -31 -31 -31 -31 -30 -29 -29 -29 -28 -28 -27 -27 -27 -27 -26 -26 -25 -24 -24 -25 -24 -24 -23 -24 -24 -24 -23 -22 -22 -22 -21 -21 -21 -21 -20 -19 -19 -19 -18 -18 -18 -18 -17 -17 -17 -17 -16 -15 -15 -15 -14 -14 -13 -13 -13 -12 -12 -11 -11 -11 -10 -10 -10 -9 -7 -6 -5 -3 -2 -2 -1 -2 -4 -2 -3 -1 -1 -1 -2 -1 -2 -2 -2 -2 -2 -2 -2 -2 -2 -2 -2 -3 -3 -2 -2 -2 -2 -2 -2 -2 -2 -2 -2 -2 -2 -2 -1 -2 -2 -3 -5 -6 -6 -7 -8 -11 -26 -45 -58 -70 -78 -89 -96 -103 -107 -115 -120 -137 -147 -156 -160 -164 -174 -187 -208 -233 -249 -255 -254 -259 -270 -284 -305 -332 -367 -420 -479 -520 -554 -574 -591 -611 -635 -661 -695
